ply
format ascii 1.0
element vertex 879
property double x
property double y
property double z
end_header
-0.055587768554688 2.878906250000000 0.265380859375000
-0.002755165100098 2.881835937500000 0.270751953125000
-0.000363111495972 2.886718750000000 0.265869140625000
-0.011329650878906 2.902343750000000 0.273681640625000
-0.063110351562500 2.904296875000000 0.268066406250000
-0.065002441406250 2.923828125000000 0.264160156250000
-0.017456054687500 2.923828125000000 0.271484375000000
-0.068969726562500 2.927734375000000 0.269775390625000
-0.020843505859375 2.929687500000000 0.271972656250000
0.472167968750000 2.931640625000000 0.264160156250000
0.476318359375000 2.925781250000000 0.264892578125000
-0.071736653645833 2.941406250000000 0.269531250000000
-0.024078369140625 2.937500000000000 0.272705078125000
0.499023437500000 2.943359375000000 0.266357421875000
-0.074279785156250 2.953125000000000 0.271972656250000
-0.031768798828125 2.947916666666667 0.267985026041667
0.488574218750000 2.949609375000000 0.270458984375000
0.509277343750000 2.949218750000000 0.266845703125000
-0.064239501953125 2.958007812500000 0.265869140625000
-0.051432291666667 2.961588541666667 0.265869140625000
-0.039184570312500 2.958984375000000 0.265869140625000
0.483398437500000 2.957031250000000 0.265380859375000
0.509277343750000 2.955078125000000 0.268310546875000
-0.061330159505208 2.968750000000000 0.271158854166667
-0.046051025390625 2.966796875000000 0.270996093750000
0.495483398437500 2.969726562500000 0.269042968750000
0.507324218750000 2.970052083333333 0.271972656250000
0.492431640625000 2.976562500000000 0.265625000000000
0.511474609375000 2.978515625000000 0.272094726562500
0.494873046875000 2.984375000000000 0.264648437500000
0.506184895833333 2.988281250000000 0.269938151041667
0.513671875000000 2.986328125000000 0.272460937500000
0.513671875000000 3.000000000000000 0.270507812500000
0.527832031250000 3.003906250000000 0.266357421875000
0.514648437500000 3.005859375000000 0.269165039062500
0.523925781250000 3.010742187500000 0.270507812500000
0.516601562500000 3.020507812500000 0.265991210937500
0.531738281250000 3.015625000000000 0.266113281250000
0.516601562500000 3.027343750000000 0.264404296875000
0.526611328125000 3.029296875000000 0.268676757812500
0.533203125000000 3.027343750000000 0.267822265625000
0.524902343750000 3.042968750000000 0.264648437500000
0.533203125000000 3.041015625000000 0.269287109375000
0.542480468750000 3.050781250000000 0.266601562500000
0.539550781250000 3.062500000000000 0.266601562500000
0.547851562500000 3.062500000000000 0.265380859375000
0.548583984375000 3.070312500000000 0.268188476562500
0.551269531250000 3.078125000000000 0.268798828125000
0.560058593750000 3.078125000000000 0.269775390625000
0.566406250000000 3.074218750000000 0.264648437500000
0.574462890625000 3.083007812500000 0.268432617187500
0.583984375000000 3.083984375000000 0.264648437500000
0.548339843750000 3.085937500000000 0.265625000000000
0.558349609375000 3.089843750000000 0.269653320312500
0.567871093750000 3.087239583333333 0.272949218750000
0.586791992187500 3.088867187500000 0.267639160156250
0.551757812500000 3.095703125000000 0.265380859375000
0.558593750000000 3.098632812500000 0.267822265625000
0.568359375000000 3.101562500000000 0.271484375000000
0.589355468750000 3.097656250000000 0.273681640625000
0.595703125000000 3.099609375000000 0.272216796875000
0.615722656250000 3.107421875000000 0.267333984375000
0.567545572916667 3.117838541666667 0.268310546875000
0.625244140625000 3.115234375000000 0.266845703125000
0.571777343750000 3.126953125000000 0.265380859375000
0.574218750000000 3.129557291666667 0.267171223958333
0.636718750000000 3.127929687500000 0.272827148437500
0.643310546875000 3.131835937500000 0.270874023437500
0.578491210937500 3.137695312500000 0.266357421875000
0.648437500000000 3.134765625000000 0.271972656250000
0.656738281250000 3.137695312500000 0.269653320312500
0.584472656250000 3.144531250000000 0.268066406250000
0.669921875000000 3.148437500000000 0.269897460937500
0.590087890625000 3.156250000000000 0.265014648437500
0.595214843750000 3.156250000000000 0.272827148437500
0.671386718750000 3.154296875000000 0.264892578125000
0.682617187500000 3.156250000000000 0.272705078125000
0.691406250000000 3.162109375000000 0.273681640625000
0.695312500000000 3.171875000000000 0.269775390625000
0.616210937500000 3.175781250000000 0.272460937500000
0.626953125000000 3.175781250000000 0.266845703125000
0.645996093750000 3.183593750000000 0.266845703125000
0.677246093750000 3.175781250000000 0.265136718750000
0.692871093750000 3.179687500000000 0.270019531250000
0.698486328125000 3.179687500000000 0.271606445312500
0.703125000000000 3.175781250000000 0.271972656250000
0.650878906250000 3.186523437500000 0.270263671875000
0.661621093750000 3.187500000000000 0.269042968750000
0.669189453125000 3.191406250000000 0.271606445312500
0.675781250000000 3.189453125000000 0.269531250000000
0.687988281250000 3.188151041666667 0.269775390625000
0.687866210937500 1.511230468750000 0.280822753906250
0.701660156250000 1.511718750000000 0.281005859375000
0.721679687500000 1.511718750000000 0.278320312500000
0.725585937500000 1.512695312500000 0.279052734375000
0.676432291666667 1.517578125000000 0.277994791666667
0.737792968750000 1.518554687500000 0.280761718750000
0.745605468750000 1.522460937500000 0.283691406250000
0.671875000000000 1.533203125000000 0.277587890625000
0.757649739583333 1.530273437500000 0.279866536458333
0.674316406250000 1.537109375000000 0.279296875000000
0.776855468750000 1.541992187500000 0.281250000000000
0.684082031250000 1.544921875000000 0.281005859375000
0.774902343750000 1.550292968750000 0.279174804687500
0.698974609375000 1.555664062500000 0.277832031250000
0.707519531250000 1.560546875000000 0.280151367187500
0.779296875000000 1.558105468750000 0.283081054687500
0.729492187500000 1.570312500000000 0.276977539062500
0.740722656250000 1.572265625000000 0.280029296875000
0.757812500000000 1.573242187500000 0.279296875000000
0.769856770833333 1.569010416666667 0.277018229166667
0.775878906250000 1.567382812500000 0.281005859375000
0.762207031250000 1.575195312500000 0.281982421875000
-0.470458984375000 1.808593750000000 0.278808593750000
-0.445556640625000 1.811523437500000 0.276855468750000
-0.434082031250000 1.810546875000000 0.275878906250000
-0.483154296875000 1.820312500000000 0.280273437500000
-0.444335937500000 1.814453125000000 0.281982421875000
-0.489746093750000 1.832031250000000 0.279622395833333
-0.430175781250000 1.829101562500000 0.276733398437500
-0.498046875000000 1.841796875000000 0.277832031250000
-0.492187500000000 1.835937500000000 0.280029296875000
-0.502604166666667 1.850260416666667 0.280192057291667
-0.432617187500000 1.846191406250000 0.277587890625000
-0.441162109375000 1.854492187500000 0.279785156250000
-0.505859375000000 1.865234375000000 0.282470703125000
-0.471435546875000 1.873046875000000 0.280029296875000
-0.459350585937500 1.869628906250000 0.278808593750000
-0.454101562500000 1.866536458333333 0.280924479166667
-0.500813802083333 1.878580729166667 0.279785156250000
-0.490478515625000 1.879882812500000 0.278076171875000
-0.483398437500000 1.875976562500000 0.278076171875000
-0.476806640625000 1.876953125000000 0.282226562500000
-0.507324218750000 1.885742187500000 0.283691406250000
-0.505371093750000 1.892578125000000 0.281982421875000
-0.010528564453125 2.810546875000000 0.274414062500000
-0.020568847656250 2.822265625000000 0.274414062500000
-0.015350341796875 2.820312500000000 0.275634765625000
-0.021525065104167 2.830078125000000 0.276692708333333
-0.011640548706055 2.831054687500000 0.279174804687500
-0.003477096557617 2.824218750000000 0.275634765625000
-0.022621154785156 2.836914062500000 0.278564453125000
-0.014877319335938 2.843750000000000 0.283203125000000
0.002164840698242 2.839843750000000 0.276367187500000
0.006698608398438 2.839843750000000 0.274658203125000
-0.036071777343750 2.845703125000000 0.274658203125000
-0.010154724121094 2.845703125000000 0.281494140625000
-0.045501708984375 2.863281250000000 0.275390625000000
-0.009914398193359 2.858398437500000 0.281616210937500
-0.001464843750000 2.858398437500000 0.276977539062500
-0.048034667968750 2.869140625000000 0.275878906250000
-0.051376342773438 2.877929687500000 0.277587890625000
-0.012161254882812 2.882812500000000 0.282958984375000
-0.058105468750000 2.890625000000000 0.274902343750000
-0.007951736450195 2.887695312500000 0.275268554687500
-0.006935119628906 2.886718750000000 0.274169921875000
-0.060119628906250 2.898437500000000 0.279052734375000
-0.017196655273438 2.902343750000000 0.282958984375000
-0.015640258789062 2.898437500000000 0.281738281250000
-0.061798095703125 2.904296875000000 0.281738281250000
-0.017669677734375 2.910156250000000 0.279541015625000
-0.070312500000000 2.925781250000000 0.281250000000000
-0.023437500000000 2.929687500000000 0.279296875000000
-0.075073242187500 2.935546875000000 0.281738281250000
-0.030265808105469 2.949218750000000 0.281494140625000
-0.079040527343750 2.955078125000000 0.280029296875000
-0.034561157226562 2.957031250000000 0.274902343750000
0.501464843750000 2.962890625000000 0.275146484375000
-0.079132080078125 2.974609375000000 0.283081054687500
-0.074035644531250 2.974609375000000 0.278808593750000
-0.060333251953125 2.978515625000000 0.279296875000000
-0.051318359375000 2.978515625000000 0.279736328125000
0.582031250000000 3.097656250000000 0.275634765625000
0.584960937500000 3.099609375000000 0.275634765625000
0.581054687500000 3.113281250000000 0.274780273437500
0.586181640625000 3.111328125000000 0.277587890625000
0.597005208333333 3.108723958333333 0.277832031250000
0.580566406250000 3.123046875000000 0.276123046875000
0.595214843750000 3.115234375000000 0.281005859375000
0.609863281250000 3.117187500000000 0.279785156250000
0.617187500000000 3.123046875000000 0.280517578125000
0.590087890625000 3.125976562500000 0.278198242187500
0.593750000000000 3.126953125000000 0.279052734375000
0.603515625000000 3.132812500000000 0.282226562500000
0.630615234375000 3.125000000000000 0.276855468750000
0.636230468750000 3.130859375000000 0.278320312500000
0.588378906250000 3.135742187500000 0.278442382812500
0.595947265625000 3.138671875000000 0.281250000000000
0.657836914062500 3.140625000000000 0.278564453125000
0.670410156250000 3.145507812500000 0.277587890625000
0.677246093750000 3.150390625000000 0.280273437500000
0.602050781250000 3.158203125000000 0.278564453125000
0.684082031250000 3.154296875000000 0.275634765625000
0.609619140625000 3.171875000000000 0.278686523437500
0.701171875000000 3.166015625000000 0.279622395833333
0.703125000000000 3.167968750000000 0.277832031250000
0.621093750000000 3.181640625000000 0.281982421875000
0.625976562500000 3.183593750000000 0.282470703125000
0.718017578125000 3.181640625000000 0.278686523437500
0.627929687500000 3.185546875000000 0.282714843750000
0.647460937500000 3.187500000000000 0.277832031250000
0.656738281250000 3.191406250000000 0.275146484375000
0.705078125000000 3.187500000000000 0.274169921875000
0.718994140625000 3.185546875000000 0.277343750000000
0.725341796875000 3.189453125000000 0.279418945312500
0.665820312500000 3.196875000000000 0.279492187500000
0.689453125000000 3.203125000000000 0.278564453125000
0.718994140625000 3.195312500000000 0.278930664062500
0.682128906250000 3.207031250000000 0.283935546875000
0.685058593750000 3.205078125000000 0.280029296875000
0.728271484375000 3.210937500000000 0.283935546875000
0.697021484375000 1.516601562500000 0.287963867187500
0.705566406250000 1.519205729166667 0.291910807291667
0.726562500000000 1.521484375000000 0.291748046875000
0.742675781250000 1.522460937500000 0.291503906250000
0.689208984375000 1.525390625000000 0.286010742187500
0.755859375000000 1.527343750000000 0.293212890625000
0.764160156250000 1.533203125000000 0.285156250000000
0.689208984375000 1.537597656250000 0.287475585937500
0.696289062500000 1.538574218750000 0.291625976562500
0.778808593750000 1.539388020833333 0.289713541666667
0.690673828125000 1.546875000000000 0.287841796875000
0.695312500000000 1.551269531250000 0.285034179687500
0.790852864583333 1.548828125000000 0.292236328125000
0.708740234375000 1.559082031250000 0.288452148437500
0.713867187500000 1.560546875000000 0.292236328125000
0.718261718750000 1.565429687500000 0.285888671875000
0.727539062500000 1.570312500000000 0.287109375000000
0.789062500000000 1.566894531250000 0.291259765625000
0.751708984375000 1.578613281250000 0.289428710937500
0.758544921875000 1.576171875000000 0.284912109375000
0.766601562500000 1.578613281250000 0.289184570312500
0.780761718750000 1.577148437500000 0.292968750000000
-0.479003906250000 1.812500000000000 0.284912109375000
-0.475341796875000 1.813476562500000 0.286865234375000
-0.465820312500000 1.812500000000000 0.284423828125000
-0.449829101562500 1.818847656250000 0.290405273437500
-0.443847656250000 1.816406250000000 0.285888671875000
-0.442138671875000 1.833007812500000 0.290527343750000
-0.500976562500000 1.842773437500000 0.293212890625000
-0.439575195312500 1.835449218750000 0.288940429687500
-0.436157226562500 1.838867187500000 0.286987304687500
-0.509277343750000 1.853515625000000 0.284912109375000
-0.506347656250000 1.850585937500000 0.284423828125000
-0.513183593750000 1.860351562500000 0.288452148437500
-0.522216796875000 1.867675781250000 0.292846679687500
-0.461425781250000 1.874023437500000 0.291992187500000
-0.523925781250000 1.882812500000000 0.293212890625000
-0.512207031250000 1.880859375000000 0.286132812500000
-0.519042968750000 1.888671875000000 0.290527343750000
-0.514648437500000 1.887695312500000 0.288085937500000
-0.496093750000000 1.890625000000000 0.284423828125000
-0.483154296875000 1.888671875000000 0.289469401041667
-0.520996093750000 1.897460937500000 0.290771484375000
-0.514648437500000 1.900390625000000 0.286865234375000
-0.499023437500000 1.896972656250000 0.288818359375000
-0.486328125000000 1.894531250000000 0.293212890625000
-0.523600260416667 1.908528645833333 0.291992187500000
-0.513183593750000 1.911132812500000 0.292724609375000
-0.021469116210938 2.857421875000000 0.285156250000000
-0.034027099609375 2.871093750000000 0.286010742187500
-0.042633056640625 2.877929687500000 0.285644531250000
-0.031173706054688 2.878906250000000 0.289550781250000
-0.024566650390625 2.878255208333333 0.288330078125000
-0.015174865722656 2.880859375000000 0.284179687500000
-0.038757324218750 2.890625000000000 0.291015625000000
-0.023483276367188 2.888671875000000 0.287841796875000
-0.015571594238281 2.884765625000000 0.284423828125000
-0.056823730468750 2.898437500000000 0.285644531250000
-0.022323608398438 2.894531250000000 0.287353515625000
-0.061065673828125 2.908203125000000 0.288085937500000
-0.022201538085938 2.910156250000000 0.286376953125000
-0.064025878906250 2.919921875000000 0.292480468750000
-0.056365966796875 2.916015625000000 0.293457031250000
-0.033843994140625 2.923828125000000 0.292968750000000
-0.068762207031250 2.927734375000000 0.289697265625000
-0.031425476074219 2.931640625000000 0.290405273437500
-0.025665283203125 2.925781250000000 0.285400390625000
-0.076965332031250 2.939453125000000 0.286132812500000
-0.031188964843750 2.941406250000000 0.286865234375000
-0.032012939453125 2.945312500000000 0.286132812500000
-0.083496093750000 2.958984375000000 0.287475585937500
-0.035563151041667 2.958984375000000 0.290934244791667
-0.083597819010417 2.968750000000000 0.286132812500000
-0.038574218750000 2.967773437500000 0.286987304687500
-0.036071777343750 2.966796875000000 0.290771484375000
-0.086151123046875 2.978515625000000 0.290161132812500
-0.047500610351562 2.982421875000000 0.290527343750000
-0.046325683593750 2.982421875000000 0.292724609375000
-0.083648681640625 2.990234375000000 0.292236328125000
-0.070465087890625 2.986328125000000 0.285034179687500
-0.060546875000000 2.996093750000000 0.292968750000000
0.604980468750000 3.142578125000000 0.284912109375000
0.625488281250000 3.136718750000000 0.285644531250000
0.643554687500000 3.136718750000000 0.285400390625000
0.612304687500000 3.148437500000000 0.287597656250000
0.622558593750000 3.150390625000000 0.289794921875000
0.628662109375000 3.150390625000000 0.291748046875000
0.658203125000000 3.144531250000000 0.291259765625000
0.667480468750000 3.148437500000000 0.288085937500000
0.616943359375000 3.160156250000000 0.288818359375000
0.627441406250000 3.169921875000000 0.293701171875000
0.714843750000000 3.171875000000000 0.287841796875000
0.622558593750000 3.175781250000000 0.286621093750000
0.630126953125000 3.179687500000000 0.290161132812500
0.721679687500000 3.177734375000000 0.288330078125000
0.724121093750000 3.177734375000000 0.289550781250000
0.639160156250000 3.190429687500000 0.288940429687500
0.643066406250000 3.191406250000000 0.286621093750000
0.728515625000000 3.185546875000000 0.285400390625000
0.737304687500000 3.190429687500000 0.288085937500000
0.655110677083333 3.196614583333333 0.289143880208333
0.671386718750000 3.201171875000000 0.289306640625000
0.740722656250000 3.203125000000000 0.285644531250000
0.690917968750000 3.210937500000000 0.286865234375000
0.748046875000000 3.209635416666667 0.291422526041667
0.698730468750000 3.214843750000000 0.286376953125000
0.709716796875000 3.218750000000000 0.288940429687500
0.717285156250000 3.218750000000000 0.288899739583333
0.728271484375000 3.219726562500000 0.289062500000000
0.720703125000000 3.224609375000000 0.292968750000000
0.724609375000000 3.224609375000000 0.292968750000000
0.708007812500000 1.523437500000000 0.296630859375000
0.714843750000000 1.523437500000000 0.297607421875000
0.730468750000000 1.527343750000000 0.302001953125000
0.747070312500000 1.527343750000000 0.299560546875000
0.754394531250000 1.526367187500000 0.298583984375000
0.769531250000000 1.530273437500000 0.301025390625000
0.702636718750000 1.543945312500000 0.295166015625000
0.776855468750000 1.535156250000000 0.298828125000000
0.792480468750000 1.541992187500000 0.301757812500000
0.705078125000000 1.551757812500000 0.296875000000000
0.713378906250000 1.550781250000000 0.302001953125000
0.799804687500000 1.546875000000000 0.300292968750000
0.713867187500000 1.559570312500000 0.299072265625000
0.803222656250000 1.558593750000000 0.301513671875000
0.734619140625000 1.571777343750000 0.297363281250000
0.798339843750000 1.567871093750000 0.297851562500000
0.740722656250000 1.574218750000000 0.298583984375000
0.746337890625000 1.578613281250000 0.296752929687500
0.776855468750000 1.583984375000000 0.301269531250000
0.791992187500000 1.579589843750000 0.301025390625000
0.793945312500000 1.580078125000000 0.303222656250000
0.757324218750000 1.584960937500000 0.300537109375000
-0.481567382812500 1.821777343750000 0.296875000000000
-0.460205078125000 1.821289062500000 0.297607421875000
-0.488525390625000 1.826171875000000 0.294433593750000
-0.458984375000000 1.824218750000000 0.301757812500000
-0.500000000000000 1.841471354166667 0.299886067708333
-0.507324218750000 1.849609375000000 0.301513671875000
-0.503906250000000 1.845703125000000 0.299804687500000
-0.443033854166667 1.848958333333333 0.297037760416667
-0.522949218750000 1.867187500000000 0.302246093750000
-0.461547851562500 1.873046875000000 0.302368164062500
-0.453491210937500 1.864746093750000 0.297973632812500
-0.462890625000000 1.875000000000000 0.296386718750000
-0.475585937500000 1.891601562500000 0.300292968750000
-0.529052734375000 1.898437500000000 0.295776367187500
-0.530273437500000 1.907470703125000 0.297607421875000
-0.498046875000000 1.909179687500000 0.297729492187500
-0.491455078125000 1.911132812500000 0.301391601562500
-0.485839843750000 1.905273437500000 0.302246093750000
-0.522460937500000 1.919921875000000 0.297485351562500
-0.510253906250000 1.919921875000000 0.301025390625000
-0.502441406250000 1.918945312500000 0.301513671875000
-0.037994384765625 2.900390625000000 0.294189453125000
-0.035827636718750 2.900390625000000 0.293945312500000
-0.048416137695312 2.911132812500000 0.294433593750000
-0.041320800781250 2.910156250000000 0.296142578125000
-0.036651611328125 2.910156250000000 0.294189453125000
-0.058654785156250 2.921875000000000 0.294921875000000
-0.053314208984375 2.916015625000000 0.294555664062500
-0.039154052734375 2.923828125000000 0.295410156250000
-0.052551269531250 2.928385416666667 0.298990885416667
-0.044219970703125 2.927734375000000 0.297851562500000
-0.069396972656250 2.935546875000000 0.299560546875000
-0.064025878906250 2.935546875000000 0.301513671875000
-0.042175292968750 2.937500000000000 0.297119140625000
-0.084045410156250 2.953125000000000 0.294921875000000
-0.037841796875000 2.947265625000000 0.297851562500000
-0.036560058593750 2.945312500000000 0.295410156250000
-0.089538574218750 2.960937500000000 0.299804687500000
-0.084106445312500 2.955078125000000 0.302246093750000
-0.038503011067708 2.957031250000000 0.297688802083333
-0.039245605468750 2.964843750000000 0.298095703125000
-0.090759277343750 2.981445312500000 0.296875000000000
-0.090332031250000 2.990234375000000 0.296997070312500
-0.089721679687500 3.003906250000000 0.301757812500000
-0.082763671875000 3.000000000000000 0.296630859375000
-0.059661865234375 2.999023437500000 0.295288085937500
-0.082092285156250 3.009765625000000 0.303466796875000
-0.072265625000000 3.007812500000000 0.302001953125000
0.641601562500000 3.150390625000000 0.294921875000000
0.649658203125000 3.149414062500000 0.293945312500000
0.659423828125000 3.149414062500000 0.294677734375000
0.664550781250000 3.150390625000000 0.296142578125000
0.637451171875000 3.162109375000000 0.297851562500000
0.678955078125000 3.157226562500000 0.300903320312500
0.691894531250000 3.160156250000000 0.302001953125000
0.695922851562500 3.162109375000000 0.300476074218750
0.648681640625000 3.168945312500000 0.302734375000000
0.648925781250000 3.183593750000000 0.302246093750000
0.732421875000000 3.181640625000000 0.300781250000000
0.736328125000000 3.183593750000000 0.302246093750000
0.649902343750000 3.185546875000000 0.302001953125000
0.656250000000000 3.191406250000000 0.303466796875000
0.660644531250000 3.201171875000000 0.298095703125000
0.667968750000000 3.201171875000000 0.303710937500000
0.670898437500000 3.205078125000000 0.294433593750000
0.678710937500000 3.208984375000000 0.299316406250000
0.684570312500000 3.210937500000000 0.298583984375000
0.756591796875000 3.208007812500000 0.299560546875000
0.690917968750000 3.214843750000000 0.302490234375000
0.695800781250000 3.216796875000000 0.302246093750000
0.722656250000000 3.230468750000000 0.301513671875000
0.729980468750000 3.229166666666667 0.298909505208333
0.735351562500000 3.229817708333333 0.299723307291667
0.747558593750000 3.226562500000000 0.299072265625000
0.719238281250000 1.529296875000000 0.304443359375000
0.725748697916667 1.530598958333333 0.307291666666667
0.739746093750000 1.531250000000000 0.309082031250000
0.746907552083333 1.531250000000000 0.309651692708333
0.772460937500000 1.529296875000000 0.307128906250000
0.784179687500000 1.535156250000000 0.306884765625000
0.794433593750000 1.539062500000000 0.311523437500000
0.720703125000000 1.549804687500000 0.306396484375000
0.808837890625000 1.545410156250000 0.312377929687500
0.813964843750000 1.553710937500000 0.309326171875000
0.823242187500000 1.550781250000000 0.312988281250000
0.722167968750000 1.561523437500000 0.307861328125000
0.726562500000000 1.554687500000000 0.310546875000000
0.822021484375000 1.559082031250000 0.312866210937500
0.739746093750000 1.571289062500000 0.308837890625000
0.809082031250000 1.569335937500000 0.305664062500000
0.817382812500000 1.569335937500000 0.310302734375000
0.759277343750000 1.583007812500000 0.309326171875000
0.803710937500000 1.578125000000000 0.306152343750000
0.813476562500000 1.577148437500000 0.309814453125000
0.767822265625000 1.587890625000000 0.307739257812500
0.777343750000000 1.588867187500000 0.309814453125000
0.783691406250000 1.587890625000000 0.311523437500000
-0.478271484375000 1.832031250000000 0.309570312500000
-0.470214843750000 1.831054687500000 0.308837890625000
-0.462646484375000 1.830078125000000 0.308227539062500
-0.488037109375000 1.838867187500000 0.312988281250000
-0.461181640625000 1.837890625000000 0.311157226562500
-0.456542968750000 1.852539062500000 0.310546875000000
-0.452636718750000 1.857666015625000 0.308654785156250
-0.531005859375000 1.878417968750000 0.306396484375000
-0.465820312500000 1.878906250000000 0.312011718750000
-0.538248697916667 1.890625000000000 0.309082031250000
-0.471801757812500 1.886718750000000 0.311035156250000
-0.478759765625000 1.896484375000000 0.308837890625000
-0.539062500000000 1.923828125000000 0.307861328125000
-0.535644531250000 1.922851562500000 0.304687500000000
-0.499267578125000 1.921875000000000 0.305664062500000
-0.494384765625000 1.915527343750000 0.310058593750000
-0.535644531250000 1.926757812500000 0.305419921875000
-0.519531250000000 1.930175781250000 0.308227539062500
-0.508544921875000 1.928710937500000 0.310302734375000
-0.054031372070312 2.941406250000000 0.306762695312500
-0.080078125000000 2.951171875000000 0.308593750000000
-0.070536295572917 2.945312500000000 0.308186848958333
-0.048034667968750 2.951171875000000 0.307373046875000
-0.086273193359375 2.960937500000000 0.307617187500000
-0.049682617187500 2.957031250000000 0.311157226562500
-0.042633056640625 2.958984375000000 0.306152343750000
-0.100219726562500 2.982421875000000 0.313476562500000
-0.095458984375000 2.976562500000000 0.305908203125000
-0.044189453125000 2.979492187500000 0.306518554687500
-0.100708007812500 2.984375000000000 0.313720703125000
-0.050048828125000 2.994140625000000 0.305664062500000
-0.098510742187500 2.997070312500000 0.308227539062500
-0.051315307617188 2.997070312500000 0.307983398437500
-0.101684570312500 3.011718750000000 0.312744140625000
-0.080566406250000 3.013671875000000 0.305908203125000
-0.071899414062500 3.013671875000000 0.305664062500000
-0.094177246093750 3.017578125000000 0.312011718750000
-0.065887451171875 3.017578125000000 0.308837890625000
0.677734375000000 3.164062500000000 0.306640625000000
0.684570312500000 3.162109375000000 0.305175781250000
0.699707031250000 3.164062500000000 0.304931640625000
0.658203125000000 3.169921875000000 0.305664062500000
0.664062500000000 3.166015625000000 0.306396484375000
0.690917968750000 3.166015625000000 0.308349609375000
0.693847656250000 3.167968750000000 0.309326171875000
0.721191406250000 3.173828125000000 0.304687500000000
0.652832031250000 3.175781250000000 0.305664062500000
0.655761718750000 3.179687500000000 0.307250976562500
0.670898437500000 3.175781250000000 0.311035156250000
0.726562500000000 3.177734375000000 0.311767578125000
0.657714843750000 3.191406250000000 0.304687500000000
0.665039062500000 3.186523437500000 0.312133789062500
0.749511718750000 3.191406250000000 0.312255859375000
0.676757812500000 3.203125000000000 0.309082031250000
0.752929687500000 3.199218750000000 0.304443359375000
0.674804687500000 3.205078125000000 0.304931640625000
0.683349609375000 3.209960937500000 0.308593750000000
0.758056640625000 3.206054687500000 0.310424804687500
0.692871093750000 3.216796875000000 0.309326171875000
0.698242187500000 3.218750000000000 0.304809570312500
0.763916015625000 3.214843750000000 0.312988281250000
0.730468750000000 3.236328125000000 0.306152343750000
0.750976562500000 3.236328125000000 0.309326171875000
0.758951822916667 3.236328125000000 0.311523437500000
0.734863281250000 1.534179687500000 0.314208984375000
0.748535156250000 1.533203125000000 0.315673828125000
0.762695312500000 1.532226562500000 0.315673828125000
0.783935546875000 1.531250000000000 0.320190429687500
0.738281250000000 1.537109375000000 0.316731770833333
0.762207031250000 1.536132812500000 0.321289062500000
0.799804687500000 1.536132812500000 0.318603515625000
0.806315104166667 1.539062500000000 0.319254557291667
0.813476562500000 1.539062500000000 0.321289062500000
0.746582031250000 1.546875000000000 0.323242187500000
0.827148437500000 1.549804687500000 0.314697265625000
0.834472656250000 1.549804687500000 0.317626953125000
0.847900390625000 1.551269531250000 0.323120117187500
0.839599609375000 1.556640625000000 0.320190429687500
0.741699218750000 1.565429687500000 0.320312500000000
0.752929687500000 1.573242187500000 0.322509765625000
0.839843750000000 1.571289062500000 0.321044921875000
0.843750000000000 1.564453125000000 0.322265625000000
0.758300781250000 1.579101562500000 0.317871093750000
0.763671875000000 1.582031250000000 0.318359375000000
0.811523437500000 1.581054687500000 0.316894531250000
0.813964843750000 1.581054687500000 0.318847656250000
0.828613281250000 1.578125000000000 0.321533203125000
0.838867187500000 1.574707031250000 0.320800781250000
0.778076171875000 1.588378906250000 0.317626953125000
0.798502604166667 1.587565104166667 0.318929036458333
-0.493164062500000 1.843750000000000 0.315429687500000
-0.475830078125000 1.838867187500000 0.317626953125000
-0.501464843750000 1.845703125000000 0.313964843750000
-0.490478515625000 1.845214843750000 0.318115234375000
-0.514648437500000 1.857421875000000 0.315185546875000
-0.469116210937500 1.857421875000000 0.322143554687500
-0.460083007812500 1.858886718750000 0.315673828125000
-0.523925781250000 1.867187500000000 0.323120117187500
-0.461547851562500 1.870117187500000 0.318237304687500
-0.533691406250000 1.878906250000000 0.319702148437500
-0.463378906250000 1.875976562500000 0.317138671875000
-0.476318359375000 1.893554687500000 0.322998046875000
-0.542480468750000 1.896972656250000 0.319824218750000
-0.476806640625000 1.894531250000000 0.315185546875000
-0.546386718750000 1.904296875000000 0.317871093750000
-0.485595703125000 1.904296875000000 0.320556640625000
-0.554687500000000 1.922851562500000 0.322998046875000
-0.496337890625000 1.916992187500000 0.315673828125000
-0.550292968750000 1.925781250000000 0.319335937500000
-0.506347656250000 1.931640625000000 0.314941406250000
-0.548828125000000 1.941406250000000 0.320800781250000
-0.529296875000000 1.940429687500000 0.316162109375000
-0.524169921875000 1.940917968750000 0.318237304687500
-0.510253906250000 1.937011718750000 0.319091796875000
-0.548828125000000 1.948242187500000 0.322265625000000
-0.545898437500000 1.948242187500000 0.320068359375000
-0.060058593750000 2.953125000000000 0.316650390625000
-0.081644694010417 2.960286458333333 0.316731770833333
-0.072326660156250 2.960937500000000 0.320800781250000
-0.063537597656250 2.957031250000000 0.319824218750000
-0.087524414062500 2.966796875000000 0.322509765625000
-0.097290039062500 2.980468750000000 0.319580078125000
-0.094635009765625 2.978515625000000 0.321777343750000
-0.051940917968750 2.976562500000000 0.321166992187500
-0.101806640625000 2.986979166666667 0.321044921875000
-0.102478027343750 3.000000000000000 0.314575195312500
-0.102966308593750 3.013671875000000 0.314697265625000
-0.092224121093750 3.021484375000000 0.314453125000000
-0.061614990234375 3.015625000000000 0.317871093750000
-0.093444824218750 3.029296875000000 0.319213867187500
-0.083496093750000 3.031250000000000 0.319580078125000
-0.072204589843750 3.029296875000000 0.317382812500000
-0.077087402343750 3.037109375000000 0.323730468750000
0.679443359375000 3.179687500000000 0.314941406250000
0.702636718750000 3.176757812500000 0.317138671875000
0.703613281250000 3.183593750000000 0.322753906250000
0.718750000000000 3.179687500000000 0.319824218750000
0.727661132812500 3.178710937500000 0.317687988281250
0.738281250000000 3.183593750000000 0.322509765625000
0.678955078125000 3.189453125000000 0.317382812500000
0.692382812500000 3.187500000000000 0.320800781250000
0.690917968750000 3.203125000000000 0.322998046875000
0.758300781250000 3.201171875000000 0.322509765625000
0.697753906250000 3.216796875000000 0.315429687500000
0.705566406250000 3.220703125000000 0.317626953125000
0.770019531250000 3.220703125000000 0.319824218750000
0.715332031250000 3.228515625000000 0.322998046875000
0.770507812500000 3.226562500000000 0.316650390625000
0.733398437500000 3.240234375000000 0.316406250000000
0.747558593750000 3.243164062500000 0.316284179687500
0.759033203125000 3.242187500000000 0.316894531250000
0.742187500000000 3.247070312500000 0.319824218750000
0.791503906250000 1.534179687500000 0.329833984375000
0.806640625000000 1.532226562500000 0.328369140625000
0.750488281250000 1.541015625000000 0.325439453125000
0.758300781250000 1.541992187500000 0.329345703125000
0.769856770833333 1.540690104166667 0.330810546875000
0.817626953125000 1.538085937500000 0.325195312500000
0.826660156250000 1.539062500000000 0.333740234375000
0.847900390625000 1.541992187500000 0.330200195312500
0.853027343750000 1.543945312500000 0.328125000000000
0.750976562500000 1.548339843750000 0.326171875000000
0.759765625000000 1.548828125000000 0.331787109375000
0.859130859375000 1.549804687500000 0.327514648437500
0.863769531250000 1.546875000000000 0.329101562500000
0.750000000000000 1.554687500000000 0.325683593750000
0.757080078125000 1.560546875000000 0.329956054687500
0.752441406250000 1.572265625000000 0.324218750000000
0.764160156250000 1.569335937500000 0.333251953125000
0.849121093750000 1.569335937500000 0.324462890625000
0.766113281250000 1.577148437500000 0.328247070312500
0.787109375000000 1.583984375000000 0.331542968750000
0.821289062500000 1.581054687500000 0.325317382812500
0.838867187500000 1.577148437500000 0.325195312500000
0.782226562500000 1.584960937500000 0.326416015625000
0.806884765625000 1.587890625000000 0.324951171875000
-0.489013671875000 1.853515625000000 0.326171875000000
-0.476318359375000 1.848632812500000 0.325683593750000
-0.502624511718750 1.860595703125000 0.326782226562500
-0.493286132812500 1.857910156250000 0.327880859375000
-0.479980468750000 1.859375000000000 0.328369140625000
-0.479492187500000 1.873046875000000 0.329589843750000
-0.469482421875000 1.874023437500000 0.323974609375000
-0.533528645833333 1.879557291666667 0.329101562500000
-0.526855468750000 1.876953125000000 0.330078125000000
-0.489746093750000 1.882812500000000 0.333251953125000
-0.485351562500000 1.875000000000000 0.332519531250000
-0.478027343750000 1.891601562500000 0.328857421875000
-0.544677734375000 1.900390625000000 0.332397460937500
-0.484375000000000 1.897949218750000 0.327514648437500
-0.550781250000000 1.911132812500000 0.327636718750000
-0.493164062500000 1.907877604166667 0.330078125000000
-0.497070312500000 1.916015625000000 0.331787109375000
-0.559570312500000 1.927734375000000 0.329101562500000
-0.556152343750000 1.925781250000000 0.324951171875000
-0.506347656250000 1.929687500000000 0.328125000000000
-0.561035156250000 1.938476562500000 0.332763671875000
-0.553710937500000 1.938476562500000 0.325439453125000
-0.559082031250000 1.949218750000000 0.333740234375000
-0.541503906250000 1.952636718750000 0.326171875000000
-0.525634765625000 1.951660156250000 0.330322265625000
-0.551269531250000 1.957031250000000 0.329589843750000
-0.060821533203125 2.972656250000000 0.326904296875000
-0.063262939453125 2.976562500000000 0.330078125000000
-0.053680419921875 2.980468750000000 0.324951171875000
-0.101257324218750 2.992187500000000 0.333251953125000
-0.056320190429688 2.992187500000000 0.330078125000000
-0.106811523437500 2.998046875000000 0.331298828125000
-0.054779052734375 3.000000000000000 0.325927734375000
-0.058670043945312 3.017578125000000 0.325927734375000
-0.071166992187500 3.033203125000000 0.325927734375000
-0.065063476562500 3.027343750000000 0.327148437500000
-0.110839843750000 3.039062500000000 0.329345703125000
-0.099365234375000 3.035156250000000 0.324218750000000
-0.077941894531250 3.042968750000000 0.327148437500000
-0.074849446614583 3.039713541666667 0.328369140625000
-0.117919921875000 3.048828125000000 0.332275390625000
-0.104614257812500 3.044921875000000 0.330322265625000
-0.090881347656250 3.047526041666667 0.330240885416667
0.702148437500000 3.191406250000000 0.324707031250000
0.710449218750000 3.185546875000000 0.324707031250000
0.717285156250000 3.185546875000000 0.324951171875000
0.729980468750000 3.187500000000000 0.327148437500000
0.705566406250000 3.199218750000000 0.327880859375000
0.751953125000000 3.195312500000000 0.332031250000000
0.709147135416667 3.207682291666667 0.331054687500000
0.713378906250000 3.205078125000000 0.331787109375000
0.716552734375000 3.228515625000000 0.326049804687500
0.774902343750000 3.226562500000000 0.328613281250000
0.732421875000000 3.242187500000000 0.333251953125000
0.734863281250000 3.244140625000000 0.331298828125000
0.772949218750000 3.244140625000000 0.323974609375000
0.739257812500000 3.246093750000000 0.325927734375000
0.744140625000000 3.250000000000000 0.331054687500000
0.760253906250000 3.253906250000000 0.329589843750000
0.765869140625000 3.252929687500000 0.329467773437500
0.779459635416667 3.249348958333333 0.331217447916667
0.778320312500000 3.255859375000000 0.333496093750000
0.806477864583333 1.540690104166667 0.339436848958333
0.819335937500000 1.539062500000000 0.342041015625000
0.848388671875000 1.539062500000000 0.336914062500000
0.857421875000000 1.539062500000000 0.336547851562500
0.867675781250000 1.539062500000000 0.340087890625000
0.877441406250000 1.540039062500000 0.341186523437500
0.765625000000000 1.544921875000000 0.334472656250000
0.778076171875000 1.547851562500000 0.339843750000000
0.795898437500000 1.545898437500000 0.341796875000000
0.874267578125000 1.551757812500000 0.335937500000000
0.769694010416667 1.556640625000000 0.336181640625000
0.778808593750000 1.560546875000000 0.340494791666667
0.872070312500000 1.562500000000000 0.334472656250000
0.881835937500000 1.554687500000000 0.342041015625000
0.780273437500000 1.572265625000000 0.341796875000000
0.784667968750000 1.567382812500000 0.343505859375000
0.882324218750000 1.567382812500000 0.342285156250000
0.775390625000000 1.577148437500000 0.333984375000000
0.799804687500000 1.582031250000000 0.343261718750000
0.838378906250000 1.582031250000000 0.337402343750000
0.846191406250000 1.580566406250000 0.337646484375000
0.854003906250000 1.579589843750000 0.340698242187500
0.866699218750000 1.575195312500000 0.340332031250000
0.817871093750000 1.585937500000000 0.341308593750000
-0.493286132812500 1.871582031250000 0.335815429687500
-0.520507812500000 1.879557291666667 0.334147135416667
-0.508789062500000 1.881835937500000 0.339843750000000
-0.504069010416667 1.879231770833333 0.339843750000000
-0.496582031250000 1.881835937500000 0.336425781250000
-0.507324218750000 1.885742187500000 0.342773437500000
-0.546875000000000 1.902343750000000 0.343261718750000
-0.500244140625000 1.901855468750000 0.337280273437500
-0.503906250000000 1.912109375000000 0.340820312500000
-0.557373046875000 1.920410156250000 0.343017578125000
-0.562988281250000 1.928710937500000 0.339843750000000
-0.503906250000000 1.924804687500000 0.334716796875000
-0.565429687500000 1.935058593750000 0.336791992187500
-0.514160156250000 1.940429687500000 0.336914062500000
-0.562500000000000 1.947753906250000 0.337402343750000
-0.520019531250000 1.948567708333333 0.336832682291667
-0.561767578125000 1.958496093750000 0.339843750000000
-0.550292968750000 1.961914062500000 0.337402343750000
-0.535644531250000 1.958984375000000 0.336425781250000
-0.090148925781250 2.980468750000000 0.334960937500000
-0.084228515625000 2.982421875000000 0.335937500000000
-0.082336425781250 2.988281250000000 0.341552734375000
-0.069763183593750 2.986328125000000 0.338134765625000
-0.063791910807292 2.990885416666667 0.337076822916667
-0.109375000000000 3.003906250000000 0.337158203125000
-0.105895996093750 2.998046875000000 0.336181640625000
-0.061614990234375 3.003906250000000 0.339355468750000
-0.109191894531250 3.005859375000000 0.341552734375000
-0.061279296875000 3.010742187500000 0.337890625000000
-0.116088867187500 3.027343750000000 0.334716796875000
-0.064819335937500 3.025390625000000 0.343261718750000
-0.118591308593750 3.038411458333333 0.335611979166667
-0.120788574218750 3.046875000000000 0.335449218750000
-0.074340820312500 3.046875000000000 0.339111328125000
-0.123535156250000 3.056640625000000 0.336995442708333
-0.131469726562500 3.072265625000000 0.337646484375000
-0.102050781250000 3.072265625000000 0.334716796875000
-0.091308593750000 3.068359375000000 0.335937500000000
-0.134704589843750 3.079101562500000 0.340942382812500
-0.118103027343750 3.082031250000000 0.335693359375000
-0.110534667968750 3.074218750000000 0.334228515625000
-0.103698730468750 3.074218750000000 0.334716796875000
-0.137329101562500 3.085937500000000 0.340820312500000
-0.130615234375000 3.089192708333333 0.339518229166667
-0.124206542968750 3.089843750000000 0.337646484375000
-0.116210937500000 3.091796875000000 0.336914062500000
-0.103556315104167 3.091145833333333 0.342122395833333
-0.144531250000000 3.101562500000000 0.343261718750000
-0.136962890625000 3.095703125000000 0.341064453125000
-0.140136718750000 3.110351562500000 0.342651367187500
-0.128051757812500 3.111328125000000 0.339843750000000
-0.124572753906250 3.111979166666667 0.340494791666667
-0.140258789062500 3.123046875000000 0.343017578125000
-0.135742187500000 3.125000000000000 0.341552734375000
0.725830078125000 3.201171875000000 0.336914062500000
0.739746093750000 3.203125000000000 0.342041015625000
0.747558593750000 3.196777343750000 0.337097167968750
0.754394531250000 3.199218750000000 0.338623046875000
0.730957031250000 3.207031250000000 0.343505859375000
0.760253906250000 3.205078125000000 0.343261718750000
0.765136718750000 3.208984375000000 0.340087890625000
0.776367187500000 3.218750000000000 0.342041015625000
0.779947916666667 3.225911458333333 0.340657552083333
0.728759765625000 3.238281250000000 0.337280273437500
0.785807291666667 3.241536458333333 0.339111328125000
0.738769531250000 3.248046875000000 0.336181640625000
0.748535156250000 3.252929687500000 0.335937500000000
0.786132812500000 3.246093750000000 0.337890625000000
0.755371093750000 3.259765625000000 0.340087890625000
0.769205729166667 3.259114583333333 0.336914062500000
0.784667968750000 3.259765625000000 0.340087890625000
0.781738281250000 3.265625000000000 0.342529296875000
0.847900390625000 1.533203125000000 0.349487304687500
0.857666015625000 1.532226562500000 0.351318359375000
0.871582031250000 1.534179687500000 0.351562500000000
0.829589843750000 1.539062500000000 0.348632812500000
0.835937500000000 1.537109375000000 0.349365234375000
0.885904947916667 1.538736979166667 0.348470052083333
0.799316406250000 1.552734375000000 0.350830078125000
0.808105468750000 1.544921875000000 0.345825195312500
0.887695312500000 1.550781250000000 0.346435546875000
0.791015625000000 1.554687500000000 0.346191406250000
0.803222656250000 1.554687500000000 0.353271484375000
0.896484375000000 1.559570312500000 0.353027343750000
0.800781250000000 1.564453125000000 0.352294921875000
0.875976562500000 1.573242187500000 0.345458984375000
0.883789062500000 1.572265625000000 0.353759765625000
0.800292968750000 1.576660156250000 0.351196289062500
0.810546875000000 1.582031250000000 0.348876953125000
0.814453125000000 1.581054687500000 0.351318359375000
0.832519531250000 1.582031250000000 0.349853515625000
0.837402343750000 1.582519531250000 0.351806640625000
0.867187500000000 1.580078125000000 0.352539062500000
-0.517578125000000 1.891601562500000 0.344726562500000
-0.509765625000000 1.890625000000000 0.343994140625000
-0.531738281250000 1.901367187500000 0.348388671875000
-0.521972656250000 1.895507812500000 0.347005208333333
-0.549316406250000 1.907226562500000 0.346435546875000
-0.540039062500000 1.907226562500000 0.351318359375000
-0.535644531250000 1.907226562500000 0.353027343750000
-0.559082031250000 1.922851562500000 0.353027343750000
-0.508300781250000 1.918619791666667 0.344889322916667
-0.512207031250000 1.931966145833333 0.351725260416667
-0.520670572916667 1.950520833333333 0.347737630208333
-0.569335937500000 1.955078125000000 0.347900390625000
-0.528320312500000 1.959472656250000 0.350219726562500
-0.561767578125000 1.968750000000000 0.346801757812500
-0.551269531250000 1.968750000000000 0.348754882812500
-0.536132812500000 1.966796875000000 0.347656250000000
-0.086364746093750 2.992187500000000 0.345214843750000
-0.100219726562500 2.998046875000000 0.347656250000000
-0.090270996093750 2.999348958333333 0.349934895833333
-0.084411621093750 3.001953125000000 0.352050781250000
-0.072814941406250 3.000000000000000 0.346761067708333
-0.066711425781250 3.001953125000000 0.344482421875000
-0.113342285156250 3.013671875000000 0.346191406250000
-0.066772460937500 3.023437500000000 0.347412109375000
-0.123229980468750 3.027343750000000 0.348144531250000
-0.069824218750000 3.037109375000000 0.352050781250000
-0.132324218750000 3.050781250000000 0.351562500000000
-0.072906494140625 3.047851562500000 0.344604492187500
-0.133544921875000 3.058593750000000 0.349121093750000
-0.078002929687500 3.058593750000000 0.348144531250000
-0.133544921875000 3.068359375000000 0.345947265625000
-0.089050292968750 3.072265625000000 0.344726562500000
-0.084289550781250 3.069335937500000 0.350585937500000
-0.139770507812500 3.074218750000000 0.352783203125000
-0.135375976562500 3.078125000000000 0.344238281250000
-0.090881347656250 3.079101562500000 0.349609375000000
-0.099029541015625 3.089843750000000 0.347778320312500
-0.151489257812500 3.113281250000000 0.349853515625000
-0.152872721354167 3.121744791666667 0.348144531250000
-0.145385742187500 3.123046875000000 0.344482421875000
-0.127807617187500 3.123046875000000 0.344238281250000
-0.122375488281250 3.122070312500000 0.348876953125000
-0.113769531250000 3.115234375000000 0.352539062500000
-0.151489257812500 3.129882812500000 0.346435546875000
-0.145385742187500 3.126953125000000 0.344482421875000
-0.129272460937500 3.132812500000000 0.350097656250000
-0.125488281250000 3.132812500000000 0.351806640625000
-0.167846679687500 3.142578125000000 0.350585937500000
-0.159179687500000 3.134765625000000 0.348632812500000
-0.153076171875000 3.134765625000000 0.346923828125000
-0.138671875000000 3.135742187500000 0.344360351562500
-0.160583496093750 3.149414062500000 0.348388671875000
-0.153442382812500 3.152343750000000 0.346191406250000
-0.140136718750000 3.146484375000000 0.350585937500000
-0.168701171875000 3.158203125000000 0.350341796875000
-0.166381835937500 3.161132812500000 0.349365234375000
-0.150634765625000 3.160156250000000 0.353271484375000
-0.166992187500000 3.166015625000000 0.349121093750000
-0.188232421875000 3.193359375000000 0.353271484375000
0.729492187500000 3.212890625000000 0.344726562500000
0.742187500000000 3.210937500000000 0.352294921875000
0.747070312500000 3.205078125000000 0.343994140625000
0.766113281250000 3.210937500000000 0.347167968750000
0.725830078125000 3.219726562500000 0.345642089843750
0.778320312500000 3.220703125000000 0.345214843750000
0.729003906250000 3.228515625000000 0.348266601562500
0.781250000000000 3.224609375000000 0.352050781250000
0.787353515625000 3.231445312500000 0.350830078125000
0.730712890625000 3.234375000000000 0.345947265625000
0.740478515625000 3.248046875000000 0.348510742187500
0.748535156250000 3.253906250000000 0.344726562500000
0.759277343750000 3.261718750000000 0.353271484375000
0.769531250000000 3.269531250000000 0.348632812500000
0.778808593750000 3.269531250000000 0.349609375000000
0.788818359375000 3.269531250000000 0.349609375000000
0.796386718750000 3.271484375000000 0.353027343750000
0.849121093750000 1.534179687500000 0.354248046875000
0.898111979166667 1.531250000000000 0.361083984375000
0.911132812500000 1.533203125000000 0.363037109375000
0.829101562500000 1.542968750000000 0.355468750000000
0.841308593750000 1.539062500000000 0.359619140625000
0.889160156250000 1.535156250000000 0.354003906250000
0.903320312500000 1.541992187500000 0.358154296875000
