ply
format ascii 1.0
element vertex 723
property double x
property double y
property double z
property uchar red
property uchar green
property uchar blue
end_header
0.107135643132140 -0.516330742897311 -0.238473819165298 37 30 24
0.138965982161682 -0.557222596632609 -0.242058958528444 194 196 182
0.126776369078272 -0.548612505275857 -0.240226898483757 183 179 178
0.140355755862042 -0.574079054074352 -0.238740351695766 114 115 119
0.141175234545563 -0.560742537077207 -0.239414978334897 40 30 41
0.115205935894237 -0.577071203741507 -0.237140913304587 62 56 56
0.128107167133102 -0.568585921198114 -0.236580847345698 74 86 82
0.119010191693123 -0.561162286112504 -0.234869795387476 152 158 172
0.130725538915838 -0.553707749257423 -0.236088460076980 117 107 134
0.140546941485470 -0.535414187858840 -0.243825380925757 61 42 48
0.136130267933676 -0.547340306132022 -0.242014041280506 113 108 114
0.133348135847917 -0.517103115457557 -0.244106453501767 148 128 137
0.136384263311068 -0.526879214507133 -0.243339841641755 44 39 62
0.122651431120472 -0.530475169489594 -0.240245906887014 145 150 143
0.133704297816222 -0.538580798997335 -0.241598546007303 81 83 70
0.115504767450109 -0.525182917190075 -0.238812665651358 18 15 24
0.126600677258704 -0.518323792577111 -0.238309834729070 187 192 185
0.085923304693726 -0.706181486184479 -0.233314959503990 72 68 91
0.100355737684982 -0.710079715790336 -0.231305815152592 84 80 95
0.065665420815850 -0.676663276679678 -0.231969812155281 105 109 108
0.094765702963741 -0.676468376167605 -0.233592670081933 90 65 87
0.126591158750700 -0.720853908612243 -0.232383204391396 137 134 129
0.116270044048477 -0.687277357324124 -0.231584207667732 93 96 101
0.104387226402886 -0.679364034105833 -0.232786563090016 54 53 69
0.134047631735164 -0.675971563460297 -0.234355381070428 159 157 170
0.060136254950397 -0.663017904126748 -0.231844130653063 129 131 132
0.075742516452678 -0.656033541509183 -0.232435980607865 116 119 126
0.083617269684631 -0.666797057006732 -0.232040123218408 86 94 97
0.088344238967266 -0.640406783740671 -0.233000009432561 105 101 116
0.101906472407705 -0.660203458709211 -0.234165091979819 136 134 147
0.113055725918968 -0.641418835765971 -0.234399101351678 116 115 111
0.136757650154577 -0.655987217467728 -0.234021250919245 66 51 56
0.138635342765939 -0.647051417645733 -0.231548761239882 129 118 132
0.086971761673984 -0.711108210609020 -0.229473507130743 107 104 113
0.085943171479468 -0.691320376980079 -0.229657310664797 107 98 125
0.096744999448609 -0.691527304384528 -0.229861643846624 94 99 105
0.104928655924261 -0.687599050466853 -0.230545250120310 126 120 124
0.059693577565160 -0.677244792663115 -0.228780930760086 59 25 49
0.063846222202068 -0.643727379159440 -0.228694191209949 55 41 76
0.065120986955776 -0.646887094625302 -0.230056491901989 132 116 127
0.086936501229006 -0.677960235389422 -0.229840532406278 93 105 105
0.072069621786788 -0.705596593896599 -0.225736109789876 47 17 27
0.090093059754840 -0.714967813003040 -0.226156702901284 109 106 123
0.059959361395349 -0.680114289010708 -0.227252442450106 92 95 100
0.086585174815368 -0.700881298615764 -0.227503371494509 25 16 19
0.083303473660765 -0.704913702941651 -0.224214355013615 101 102 106
0.063305860890007 -0.696197191231893 -0.223300015527888 91 77 100
0.059579813273113 -0.686175728317694 -0.221858581508290 86 101 108
0.058482686005939 -0.647389057627522 -0.034741619529002 71 77 101
0.076565819707050 -0.628625808408165 -0.233945131467968 111 108 137
0.082974026462919 -0.625268502831777 -0.229621911924863 80 72 95
0.059396004970267 -0.620407025013699 -0.232957715019996 50 62 60
0.091963437039911 -0.600648376389257 -0.233802058182840 55 55 67
0.124581341999689 -0.635668436121314 -0.233608798135073 153 156 161
0.127912171245198 -0.599762010634967 -0.233476888591045 36 13 41
0.129126858762521 -0.623069174303184 -0.230922900263496 119 123 124
0.140266011973207 -0.609366204285493 -0.232741478934373 134 126 147
0.061840363548072 -0.590842844358020 -0.231329067780360 65 59 63
0.058066332350250 -0.573941445824380 -0.232104520979970 99 108 107
0.057775397913243 -0.571651586556341 -0.233105008685676 92 88 102
0.059000614922385 -0.530713857045998 -0.234114022990737 67 41 42
0.071056654153504 -0.569892207664199 -0.233914043715627 48 53 57
0.138247334807431 -0.591666281138556 -0.233326342609503 34 27 43
0.072604622977107 -0.562019562238126 -0.234297249501009 156 148 159
0.078357855283965 -0.540768300922797 -0.233802678125746 54 62 64
0.084661987932287 -0.621237099952122 -0.228203678076325 89 81 105
0.141570891645774 -0.597214331418685 -0.228156948687585 77 68 73
0.086642934419044 -0.607095362958294 -0.227289076307061 48 37 54
0.058004853089139 -0.585900297083000 -0.048153903086847 153 171 181
0.057524101671888 -0.615678310353344 -0.045924941287346 33 36 53
0.060079010376213 -0.594318644867708 -0.043062178473471 71 79 82
0.058462275577956 -0.589032820899246 -0.046366397861938 173 174 194
0.063454828401534 -0.584439005815243 -0.046414305142199 97 106 121
0.058254909444681 -0.620517355775806 -0.035135025759584 47 26 43
0.057939959373252 -0.613820904181384 -0.040345531433755 50 50 52
0.059291644735224 -0.630170172025331 -0.041161366760506 132 148 164
0.061160372018407 -0.630587994468828 -0.034861230359533 72 38 54
0.060487609976785 -0.592049997184638 -0.041571206246890 51 33 55
0.057150953267958 -0.567482174848221 -0.038349763542753 30 24 24
0.070670134057970 -0.584890362401164 -0.034420946907671 115 116 136
0.065071067245466 -0.582401663599203 -0.039510105911175 54 47 63
0.057300674248556 -0.715772661033979 -0.027272843062249 107 115 138
0.059950939709411 -0.706756716900608 -0.026918703061576 87 66 97
0.061393279799410 -0.695185778224665 -0.031655724956872 46 27 31
0.067875612651674 -0.699922056188474 -0.022934301391782 40 22 48
0.058759142391695 -0.725386029839514 -0.016150046806699 108 118 120
0.068600621573899 -0.722093274626017 -0.001390675001969 164 157 173
0.068959883256734 -0.695285207529209 -0.018741055263321 59 47 69
0.062493039439538 -0.715171573929877 -0.012789612903031 87 77 102
0.062998388283783 -0.689761611612327 -0.026772329772671 48 22 33
0.058727057961912 -0.681663774310036 -0.024180129118153 70 86 102
0.059323633789175 -0.672388274388286 -0.033748709433123 58 41 49
0.060827605741617 -0.668413725041906 -0.023395443538035 144 157 163
0.066580923886724 -0.687306971519865 -0.019672238120925 69 56 82
0.065185775758248 -0.675956646680220 -0.019851363470435 55 37 59
0.067168381784476 -0.674810925426797 -0.012470008491015 59 56 73
0.068345834577105 -0.669401522993206 0.002592028978021 98 117 134
0.071919013810956 -0.701003370142752 -0.013274541781709 64 60 85
0.075238264430497 -0.696265909518630 -0.008519903970299 50 33 52
0.074709548507487 -0.723456829510243 0.003817455813993 58 56 67
0.073145184578415 -0.711745702668081 -0.000860576129399 90 91 95
0.074268320834892 -0.691473417039619 -0.012863891600756 42 34 47
0.072365363165713 -0.678738607089482 -0.004956109718287 47 34 88
0.074673753957851 -0.676915536216932 0.005172364879076 73 77 89
0.075134590901443 -0.668677086325970 0.006358458722056 90 98 119
0.076311395138416 -0.696476127389273 -0.004741456871470 52 52 62
0.077136901574500 -0.716027161903278 0.006052035249981 82 71 85
0.077117559355832 -0.687290538264064 0.001298637324382 69 45 67
0.077316913919245 -0.670226552550131 0.008371728078175 106 117 128
0.078311950896170 -0.722549919801806 0.005033421367460 116 117 122
0.078152158227745 -0.693280369396612 0.002139928460612 43 42 74
0.081669189709476 -0.722292042628064 0.006593693673352 116 127 133
0.090017836836380 -0.717160951640155 0.009989054206588 126 123 132
0.061454844898770 -0.666851764583793 -0.031635600656384 79 74 96
0.061767973291814 -0.659770109080314 -0.022483955789676 89 91 90
0.062876364444710 -0.654905102356464 -0.029875792572999 94 83 115
0.061585109209702 -0.650145171186394 -0.019516117422021 113 123 122
0.061097376281571 -0.657599002260320 -0.015207466537207 129 133 145
0.064429683852472 -0.647573171133029 -0.011928788796469 23 18 24
0.061912763341913 -0.660738154696869 -0.008384889942949 164 168 180
0.063864572512086 -0.657446353241689 -0.005406417170059 97 101 110
0.061559033457316 -0.640249442231121 -0.023408901067887 114 122 141
0.062731345492616 -0.635364377969865 -0.027853433900119 84 84 94
0.063874319922086 -0.629957922649473 -0.031615781558558 48 29 74
0.059049676250210 -0.621273094791004 -0.033772334026635 91 105 114
0.061675954689393 -0.640262871148224 -0.021368592663482 131 124 157
0.065738211650601 -0.632070897900048 -0.021340189740803 43 22 39
0.065349145020361 -0.643747751437090 -0.005327026327755 116 123 142
0.066211418839564 -0.627339741618401 -0.011722242895347 129 137 160
0.072823586811517 -0.642378316632840 -0.003431660574779 70 63 104
0.068316382520277 -0.655238498113743 -0.000623700713797 125 144 161
0.071761100046415 -0.662747885609632 0.004308412445234 143 144 165
0.076044962752571 -0.656410915062457 0.006325725736617 75 73 86
0.068454667938654 -0.618542236752366 -0.021893245576063 51 51 75
0.067952447421688 -0.627610876032748 -0.004681064894840 123 124 142
0.073265405814268 -0.633578160318683 -0.001842394016051 98 112 115
0.070209917057284 -0.627790297047336 -0.003151751583916 133 148 153
0.078701418104903 -0.647177342356322 0.006658778140902 73 74 128
0.080845066222952 -0.643967440127820 0.007577438151805 67 71 80
0.076991501119079 -0.634670595094937 0.001282862161819 135 150 171
0.080034333503197 -0.624604954095496 0.004717822740376 106 110 147
0.083449875562420 -0.643784280380630 0.008939996358590 97 105 128
0.080944629053660 -0.633953674043239 0.003872640270212 68 65 86
0.084683962523910 -0.631457974655232 0.006943436848184 64 46 96
0.088760687998786 -0.638996003513380 0.008500123022805 120 140 165
0.066383419614446 -0.611234788504928 -0.028422741777100 87 74 100
0.061053999353316 -0.603987331655627 -0.033879917964788 31 25 35
0.069365812334018 -0.614189989574884 -0.021338224998670 62 51 67
0.067399496499844 -0.605982098100397 -0.028555037593247 45 42 51
0.069190635543941 -0.605367210113449 -0.010394802069792 42 36 50
0.069740429525757 -0.604185942287553 -0.015887458066872 52 40 60
0.070508338497079 -0.609179363031199 -0.001313267976964 61 34 53
0.075541387898796 -0.615905781711941 -0.002269677742052 67 69 107
0.067326905954339 -0.592031971152448 -0.032839634693306 200 208 227
0.071016128962616 -0.582337857167798 -0.031052167618729 61 32 52
0.064112749963744 -0.568773849736890 -0.032084935274674 63 73 82
0.073028282421504 -0.578068338986730 -0.027913711425752 61 28 81
0.069687658078079 -0.598270943032554 -0.023418514951722 53 47 93
0.073385264621961 -0.574305934102793 -0.026829049779781 49 48 64
0.072693112673755 -0.596357494021889 -0.017884933185262 78 79 97
0.075042181258112 -0.593864598683333 -0.011680639957561 72 62 96
0.083193896367729 -0.590435856609004 -0.002322763929975 124 134 146
0.078635780457529 -0.598946909702121 0.001970846186180 43 43 71
0.081260523345822 -0.611441563308046 0.003888644334771 49 27 39
0.079183352182466 -0.598450516648472 0.003526693053482 104 97 113
0.079501115840930 -0.582970981013767 -0.021373771571144 55 57 69
0.080593150038691 -0.579180154131984 -0.021133290949103 40 22 44
0.081710601895599 -0.579088364431560 -0.018817842345420 82 89 117
0.082608794253019 -0.581162464493135 -0.012629839309772 135 138 155
0.084387944555073 -0.584540867203495 -0.009169241707656 50 48 59
0.083930684205169 -0.596107552117344 0.007565745074839 76 64 86
0.085233098412486 -0.572369213389193 -0.013297031402823 51 49 63
0.085212001278515 -0.570387914011859 -0.008989038611248 56 40 53
0.090321933138162 -0.582791540924013 0.001908794670078 95 108 78
0.090524616318101 -0.575845643379371 0.007686929606593 116 133 127
0.091159571380038 -0.571628887108397 -0.003736538958381 49 40 31
0.092874304845364 -0.569221486665375 0.000996486689567 64 33 49
0.060471262559232 -0.563694762421213 -0.030189617209614 45 23 44
0.069211112735006 -0.565649337490506 -0.023380498145208 82 55 64
0.064621074533938 -0.562211954365825 -0.027612781601582 38 20 34
0.056924397517346 -0.548810887005787 -0.019173193619155 42 40 44
0.060385863039531 -0.555733913425988 -0.016125878570947 52 47 67
0.071747299163569 -0.544314431570779 -0.016121853710850 91 90 104
0.076464635487203 -0.567582720049996 -0.010641062467233 56 36 64
0.069964772557074 -0.557887289878869 -0.014199839950498 42 18 25
0.059096582084238 -0.541148182860445 -0.018318874144315 157 160 193
0.065449642534220 -0.534515976426253 -0.018277843461520 99 99 101
0.059304863825497 -0.521234414983331 -0.020729402914618 119 121 133
0.065427114762773 -0.522361204134162 -0.019177580907413 41 40 45
0.075114867179448 -0.536838397003234 -0.016547172694718 126 123 140
0.069853287747403 -0.526832327748271 -0.016519990582684 23 17 21
0.074479502001434 -0.521822635887737 -0.014936942528183 52 43 72
0.076838060481045 -0.518557596890932 -0.008011455411524 48 38 36
0.077447702797250 -0.544504668204681 -0.015606862370020 79 69 80
0.077691521573400 -0.547473069289743 -0.008054794189447 72 73 78
0.077790206946456 -0.552222404204912 0.002113948084058 114 119 122
0.077154269513452 -0.545533143948199 -0.002983432316138 19 17 20
0.077111083336860 -0.535457068832771 -0.015379600838253 88 73 94
0.077941978507435 -0.527179190572986 -0.006367176073073 70 62 86
0.077492128859654 -0.537177114731922 -0.003136167173017 52 27 48
0.078048246259112 -0.529464624402434 -0.003955674469287 64 59 65
0.078869556158601 -0.551430765726663 -0.010678068289931 59 42 60
0.078667197256490 -0.551423593464119 0.006206525022163 64 57 91
0.079244583466416 -0.523683551890304 0.002923841496494 51 48 67
0.079290583230043 -0.548138563692990 0.006631424352372 133 166 159
0.080057662431630 -0.558308068973149 0.008590138732760 48 42 52
0.080851742531170 -0.545620889713360 0.008447456488542 63 60 69
0.082542136084247 -0.564601386002156 0.004040291907169 60 43 51
0.090015738568083 -0.567427314669829 0.009939554149938 22 14 27
0.081650591422295 -0.697475055700131 0.012124843356105 108 115 134
0.082199708235706 -0.694357629878043 0.013961400371256 69 55 68
0.094865103655535 -0.715851365170295 0.012790394984851 161 168 174
0.094897025946404 -0.708816634576010 0.014408732097080 40 24 34
0.102561828360043 -0.715437834639224 0.016469269715388 160 161 179
0.096161947914281 -0.709039442056437 0.015184500036935 122 139 131
0.099921424760185 -0.706306533437417 0.017911905470466 59 57 89
0.100947516107911 -0.699819193353989 0.018271262529132 55 32 40
0.076331652965068 -0.686183453760062 0.010818900243015 86 99 133
0.085221805914014 -0.691966491014325 0.013638953759456 90 83 101
0.086666330110559 -0.684633119615832 0.012308041253628 109 124 129
0.092455356967053 -0.685415306349160 0.013605553143196 65 67 92
0.095718946251216 -0.687862478514000 0.013995525843837 120 125 145
0.096784799783176 -0.675946861119888 0.015618250244325 76 82 94
0.101224277696328 -0.678468960538109 0.022436992730149 175 191 181
0.103233436354101 -0.672411488865721 0.028036488733895 75 64 78
0.105838503208315 -0.715267846294391 0.019029729293117 155 160 179
0.108691432773942 -0.704506247851060 0.023793027230046 175 180 210
0.108973611709600 -0.721266804894032 0.026883204177019 111 121 123
0.110652417099125 -0.710521754157501 0.027315600047599 68 66 113
0.114635988999184 -0.712847646414755 0.033869369397803 138 155 171
0.116048552754528 -0.718914426768316 0.032325902313455 63 65 60
0.117380581157587 -0.714817023813127 0.038688595722438 108 111 126
0.118350391227028 -0.721740922922188 0.038342877407704 147 162 165
0.105156957052594 -0.692597964858406 0.021877651627580 93 97 100
0.104877296038893 -0.686959069098585 0.024036578953866 106 107 112
0.109269524765022 -0.681324093285448 0.031719846128522 109 127 127
0.108079015021035 -0.675967500449867 0.032235333423676 73 70 89
0.111362852594267 -0.699288550839179 0.031814649705228 77 63 124
0.113206057304888 -0.690320723812900 0.036343265870684 58 50 74
0.111287477074478 -0.675741898457572 0.039285705654359 121 128 157
0.114505333647343 -0.689362826184837 0.042247239679539 68 46 69
0.084704449252558 -0.669024302041262 0.012131634115322 168 181 189
0.087244717766717 -0.670374289713430 0.012784004804127 140 144 169
0.090995973215929 -0.652398835326304 0.013272557964410 86 64 103
0.091685197126102 -0.649830221114965 0.014910122844309 81 83 96
0.098015796567719 -0.670384771517333 0.018184546822954 144 159 164
0.098524884144567 -0.651488291798679 0.017964476628897 79 74 104
0.099223121070835 -0.659919982662242 0.019843494964320 104 105 123
0.099574981589130 -0.656482017744987 0.019864229670131 74 72 93
0.086609085536375 -0.620350562521335 0.012638003480966 129 134 156
0.088741708208279 -0.628622527479555 0.010879082392815 46 36 60
0.092672117619750 -0.636520485651360 0.013021795827713 149 156 173
0.094105664058067 -0.618100226997951 0.016631732907100 25 16 21
0.095069656201775 -0.630770486585196 0.018300943487956 74 54 103
0.099379670960982 -0.622494573067544 0.017266859645535 61 63 86
0.099312011345976 -0.628891258422944 0.021281457303644 71 70 84
0.101173299314286 -0.619259615608056 0.021355812302035 100 108 121
0.102295701176859 -0.658173889623455 0.026135820084677 79 79 107
0.107819258943409 -0.647014106620373 0.026129735106615 72 69 90
0.105319591920803 -0.667524745989828 0.032196172107182 147 155 157
0.107327367629016 -0.661750006432922 0.034091060980999 72 65 98
0.110344839579486 -0.649237527084052 0.031575199142171 118 122 134
0.110899097150225 -0.648380518010759 0.033575001430854 75 79 91
0.109786118419824 -0.664447454317717 0.040511990872816 90 101 119
0.111357988426851 -0.641453581181458 0.040968593129480 54 73 67
0.109618447707701 -0.636349743837456 0.025979785224021 45 40 47
0.102233859487587 -0.620780459545125 0.024855399544149 137 135 149
0.103896307921976 -0.624326017938116 0.030990945872363 133 159 172
0.108473346397185 -0.613766101228491 0.032854799450546 88 96 115
0.111113244505134 -0.630538952216169 0.028835375775353 116 123 139
0.111860857499472 -0.629909643403468 0.033354320831474 53 28 50
0.111430302382443 -0.634047333109966 0.036996914595634 118 117 148
0.113683174902951 -0.628088270220723 0.043355850196848 60 48 70
0.084243221268056 -0.608904718786245 0.011063005146659 127 134 152
0.087676598607806 -0.603414657011788 0.017419804329243 70 68 69
0.096771246877492 -0.587874805701118 0.013493009661794 192 197 203
0.089877367311458 -0.603238230798315 0.020815317463810 153 166 174
0.101493351992711 -0.603460189433840 0.018755237649494 148 149 153
0.105613826361587 -0.592102606493402 0.015546756520885 115 118 137
0.097471410395561 -0.606558110898346 0.022624616066262 140 175 179
0.107462534257697 -0.603212059670098 0.022491662156877 48 51 58
0.089709048043679 -0.561355651073686 0.017895119324087 58 49 70
0.091311094963855 -0.563710442207944 0.017421521094214 33 31 53
0.092800579327462 -0.579522744119439 0.013897441338520 37 21 32
0.095841570958029 -0.571532538443217 0.017346364938837 22 16 26
0.098078897217970 -0.584699858714933 0.011490708526320 129 131 144
0.101879023243343 -0.565931192148336 0.016494086506795 88 93 96
0.103990920747020 -0.583185576635085 0.018262850380777 46 38 53
0.105350064499030 -0.580700692866392 0.021340323266967 74 56 78
0.112086440416601 -0.605652402925388 0.028913774709007 137 152 171
0.111293590665289 -0.590871075604202 0.019293882196584 93 110 126
0.113321376222993 -0.608521765746817 0.030005789831602 35 32 41
0.114399886127819 -0.586594175333760 0.022670301089645 129 135 151
0.114380934950061 -0.612079188893272 0.035819194750677 55 48 79
0.114090305715714 -0.602965341468665 0.032968735419091 79 76 105
0.116452583852761 -0.594445857152025 0.038783914328636 51 44 78
0.116400718475484 -0.592173909465179 0.036897914482333 29 28 33
0.111586575682678 -0.577185559363712 0.019688795365308 48 55 74
0.108313677717341 -0.560462341958848 0.019533905014632 55 52 69
0.113517621534292 -0.560322921568074 0.027910039456231 141 151 186
0.115821214922095 -0.580687511926452 0.023785397163510 106 113 129
0.115830304238856 -0.573982457432010 0.033137054686869 64 58 60
0.115906156637804 -0.565985575447570 0.034121943675302 34 21 41
0.116408005189026 -0.568462314120236 0.037481862549479 44 35 36
0.117416404319972 -0.562438681792934 0.040887084943712 60 53 60
0.080267985215688 -0.542815772052163 0.011187012803031 78 74 101
0.086775382836521 -0.544133293791221 0.012367384096109 54 24 62
0.085690854716715 -0.552493080815267 0.019211343951834 87 77 104
0.087809924482935 -0.540316066879224 0.022572197509162 86 100 109
0.083516276216447 -0.520055665079392 0.010644343395843 56 46 55
0.084279692986097 -0.516091330484586 0.011046791255271 57 51 95
0.082500962337703 -0.532606514125353 0.015807800172239 108 113 117
0.087554813208313 -0.518171897027551 0.020082220671056 88 92 101
0.093826642062438 -0.553702656188011 0.020774420307178 21 16 22
0.100545115936399 -0.546844828686357 0.022012913632093 28 41 50
0.097287335040386 -0.545838327534462 0.023149907996915 27 16 24
0.094854879366377 -0.539477503491780 0.023719282636978 14 22 35
0.093434532943167 -0.527514760899227 0.018287915149347 115 116 136
0.091922358669199 -0.524272211523536 0.019292871212768 135 144 173
0.101495373960343 -0.529498921551513 0.022155004546154 98 110 124
0.101226261513628 -0.520181828229560 0.023824730156502 57 54 83
0.108862899444167 -0.556345978288318 0.023466498532649 134 155 176
0.104623338811834 -0.548764076547590 0.022863170096502 101 103 141
0.107645703542470 -0.547127141148180 0.025493730910528 109 109 133
0.106223039486550 -0.541255308994607 0.025446157445678 65 63 85
0.115135357778781 -0.544911732254363 0.031288327715593 55 56 84
0.115368561224863 -0.542709943029312 0.031161725836599 52 50 64
0.116536295220241 -0.542921200496520 0.038186270292058 66 57 78
0.116876634338068 -0.552796700237890 0.041988847476306 78 65 91
0.111659118540267 -0.535206287620908 0.028434110576238 48 38 65
0.103181790341237 -0.526217725888818 0.025343723802436 63 51 63
0.108923892288537 -0.523014280604122 0.031695735118269 35 30 60
0.105406279014232 -0.519099732193462 0.031511259184601 62 68 84
0.113754649551224 -0.532034831390163 0.029037248260722 63 42 75
0.117510292288694 -0.515785898921161 0.033964058523511 70 47 75
0.118253184179363 -0.522014722812775 0.036684501521329 55 42 49
0.120596768653397 -0.514813523241847 0.040780244937046 48 32 45
0.112880024561816 -0.682044600468418 0.044603194398944 91 82 103
0.117066775596138 -0.693560898330382 0.050706961500037 73 59 92
0.118929265299928 -0.704851775414131 0.047741726892587 105 113 135
0.118870704539266 -0.698355298326026 0.050639034832703 100 112 138
0.120236543674662 -0.708832667253319 0.050066817992855 136 157 166
0.124643469816456 -0.724493631563869 0.052080716829463 99 94 101
0.123468248818289 -0.704758173572903 0.054572620259369 91 102 120
0.123730284378293 -0.694298535012724 0.057652019737360 109 120 124
0.125964406010289 -0.723534737258365 0.053833915367712 157 179 192
0.129467188342764 -0.715797926091795 0.056183479906393 74 76 89
0.135006416358461 -0.725454938877914 0.060125019677423 91 95 96
0.135854736693488 -0.714085805924258 0.060436040264586 126 135 142
0.130358227512807 -0.704273549896886 0.058293212378691 26 14 24
0.137004082228515 -0.704579754004548 0.062480249540508 40 47 57
0.126369228727925 -0.693016006666315 0.059529779111804 137 153 169
0.127744796198154 -0.682927456392101 0.063352347070376 79 90 118
0.111268907400046 -0.658018341179541 0.047907165810248 148 152 162
0.112116264439172 -0.655125687580012 0.050600617447695 59 68 77
0.112584206882226 -0.676515282001634 0.047076232489340 57 58 76
0.112756207657108 -0.648375262802432 0.053465917258693 79 96 104
0.114755628442464 -0.675014133173810 0.053849728680607 149 167 191
0.116573863760347 -0.663637627668364 0.056333448864153 151 157 189
0.115618464979075 -0.645110719759952 0.055211047001580 66 51 74
0.116254183047666 -0.634076193836637 0.056577229489970 82 81 95
0.118463297136591 -0.675599883844175 0.057086994235223 55 51 66
0.120528450945153 -0.667956884345662 0.060047708028250 119 137 151
0.123137762023877 -0.677687145770525 0.060980331060913 44 38 52
0.124133342643043 -0.660081930824463 0.064689497155597 98 106 142
0.119161028570951 -0.658596080280043 0.059303814691349 53 46 77
0.122520270276723 -0.649385712513760 0.064327431423310 69 76 94
0.116733332150944 -0.628669089960589 0.057001537490022 138 138 174
0.120532075226757 -0.643004592494093 0.060861340173288 111 132 149
0.115254615718735 -0.619304117971125 0.045040988541598 75 62 88
0.116235079268577 -0.611988982431653 0.047702050546601 49 57 68
0.117728493116450 -0.607650564749767 0.047299030432184 44 33 50
0.118927481771875 -0.578112326320308 0.046962182069797 59 34 74
0.121038444592401 -0.616338177582521 0.057202646968738 58 44 67
0.121428331454794 -0.604368911283080 0.052343667997451 52 33 61
0.119482912465344 -0.588598746414028 0.046723246536231 48 32 58
0.121281662500811 -0.590737587590159 0.051439753090129 56 50 64
0.122791376078321 -0.620760545071466 0.058684272363813 83 92 109
0.129300242486962 -0.616193263543841 0.064521349564316 56 42 67
0.124297741964139 -0.602321287552383 0.055501924213089 80 71 92
0.127993488679303 -0.612275281603240 0.062094149098633 46 25 34
0.123710226840887 -0.588214687014952 0.055524833487863 49 33 43
0.127534082373186 -0.586040652156925 0.060163780415425 50 43 77
0.126429534866307 -0.575572830350386 0.056519946765453 38 15 33
0.128498732610133 -0.579725970941618 0.057601279794897 41 28 56
0.118676958074758 -0.546686886309068 0.045701523401597 69 58 72
0.119612060879045 -0.554468638567533 0.047336455908541 42 62 68
0.119819484237819 -0.565691550833615 0.046155932014133 89 100 120
0.120274560481176 -0.532591006015119 0.046178650537243 60 50 58
0.121263121439129 -0.560379288684607 0.049076530732348 169 176 182
0.122239798568453 -0.538946069357567 0.051275172554953 81 63 105
0.121088202163797 -0.531116323980591 0.047113352763037 99 91 124
0.121904304542876 -0.524817665905009 0.051216745320456 21 14 21
0.123938279992057 -0.562792030174204 0.050990838125499 36 22 39
0.128494841276200 -0.564966675437554 0.063944688210711 82 96 122
0.124886773563114 -0.560176863019413 0.052982914971815 34 35 55
0.125916183989783 -0.553909831569622 0.061009249013083 58 61 68
0.125322927241463 -0.547947621277934 0.052997564699564 63 62 78
0.123969572802437 -0.538215967365928 0.064453461047314 36 25 39
0.124805713643755 -0.530081458056350 0.057676378724775 36 33 52
0.125874876717075 -0.525081475455482 0.063178534154692 61 37 53
0.125564743125147 -0.662665108925302 0.066688364761130 136 156 169
0.128895810810236 -0.670788974292064 0.069877732573067 78 70 81
0.133215124713033 -0.690886312032444 0.066405823397312 66 45 60
0.132508389800161 -0.668675169271753 0.074920767824362 66 61 91
0.139288695825811 -0.720899460109461 0.066565081961079 114 124 123
0.138794181676047 -0.711259953557250 0.067063496982359 112 130 132
0.136906560440605 -0.697503677987224 0.073857766029770 79 96 106
0.133779368133351 -0.673927878751450 0.073909478805716 58 65 94
0.125172872445455 -0.652095482956010 0.068929696806002 81 104 112
0.125816277806080 -0.607805664927272 0.074503746537852 50 38 62
0.127051843092962 -0.656128573987886 0.070142534032190 27 13 23
0.128226587211970 -0.611303573554748 0.065557932253528 63 53 62
0.130097241086953 -0.644412883412176 0.072833639424177 101 118 134
0.132703423838397 -0.631129538441201 0.073698717292833 101 107 123
0.129604443702159 -0.628757369830408 0.068850000761036 116 124 147
0.128995593005357 -0.616001863324792 0.074057692848173 66 62 65
0.125756543922689 -0.547729878254170 0.065865156882590 90 82 99
0.128603750938414 -0.587569755641019 0.070797785071113 47 35 39
0.130773837237009 -0.585268394047677 0.075250119646377 36 38 50
0.129332899171735 -0.564493935590166 0.066669499421620 35 42 52
0.125100224674451 -0.521265011550139 0.072575304446444 38 49 69
0.125634615459448 -0.543755033242712 0.068953903192087 49 37 49
0.126645532512351 -0.536958723152503 0.069272801822948 61 45 58
0.129512692152067 -0.519374338288083 0.074319594882012 117 129 141
0.138236824390778 -0.586654567310390 0.075131529337246 51 52 72
0.131062635255387 -0.572401850998800 0.068035758210675 125 125 149
0.134947750684385 -0.563613979091766 0.074167203378127 39 32 48
0.131216924738322 -0.554781662047162 0.070678088402333 58 71 87
0.131561880046403 -0.552971276160228 0.065918853475835 40 40 52
0.131638066260762 -0.543139496700107 0.073164936913159 51 50 66
0.138272618940413 -0.524280089567234 0.075191291833387 112 114 129
0.132942454747796 -0.523634891140973 0.074035985308878 81 90 107
0.138055295570309 -0.691150779676156 0.079370889680332 60 63 80
0.140507780168975 -0.711222127502399 0.078197423597468 127 135 148
0.130709220111034 -0.657723715697846 0.080784855460401 31 33 45
0.135995311131825 -0.680207232758697 0.076838947476280 82 98 123
0.125866254741890 -0.603347989305432 0.076340131876506 59 50 67
0.130809813000725 -0.605055006865973 0.078315689628772 55 26 44
0.134223781358725 -0.631664062752362 0.080115107295061 89 101 101
0.132731512020832 -0.602548205731156 0.080151369186272 43 61 83
0.130401270625652 -0.592857391750284 0.075841144600235 29 16 25
0.138167171420890 -0.579058778848567 0.075530867944560 126 136 138
0.134878975172148 -0.564016102673366 0.078567577200283 90 85 105
0.138272580790081 -0.559927054641034 0.078253504586506 54 47 91
0.141696153494332 -0.588471286152549 0.079614155276657 126 135 152
0.141049719951050 -0.559886138409236 0.081491094418949 102 104 129
0.140923571107257 -0.537161969049848 0.079747986643694 78 80 101
0.140407263579950 -0.515527716544758 0.077165933977669 72 67 108
0.138642953757309 -0.677804753708590 0.084279673910930 116 124 151
0.140957806262044 -0.681420680390207 0.086840438691321 119 126 134
0.132453396095604 -0.649539229452459 0.083415053846267 96 99 134
0.133719185983550 -0.638839453623233 0.083600254636256 39 44 47
0.134414685623449 -0.637069068360113 0.084255047871186 106 104 126
0.138956663942925 -0.635788075564594 0.086857854318189 60 54 64
0.132711330494845 -0.615279467700355 0.083440347516833 78 90 86
0.133491466647791 -0.601282930872702 0.081610714787063 55 53 75
0.139141082651094 -0.670603096333670 0.088992766010054 80 93 109
0.140329646728115 -0.675035068168867 0.088142662146975 120 132 144
0.134949782189600 -0.649710944099845 0.089417074010106 70 53 87
0.141416006063890 -0.636147966727919 0.089081007729540 72 51 108
0.137365890446056 -0.659230939966149 0.091618806009658 76 78 99
0.140158261127348 -0.613072013150901 0.091976770581182 49 56 84
0.139469242275213 -0.602131089068814 0.093078876466770 72 81 90
0.141703425901499 -0.611175998842270 0.097851425859373 78 80 93
0.152448304961534 -0.721357364246229 -0.239259758937603 156 136 161
0.142520639409018 -0.704953283911805 -0.238600421044292 114 115 117
0.149296281556498 -0.708969493421471 -0.238274736423006 138 130 153
0.149437633307864 -0.699527514985495 -0.237275660279608 51 38 47
0.166724784161592 -0.707025562294995 -0.238848865548279 155 161 159
0.161962282612858 -0.715974037565023 -0.238229213538537 82 76 90
0.171564969325243 -0.724977902349309 -0.236982503585722 84 76 97
0.177471718570800 -0.694779477181637 -0.237711060488887 54 54 46
0.156620539794272 -0.672209158576360 -0.240817189043711 182 177 184
0.142544693193771 -0.684114780583310 -0.239378354015526 180 176 191
0.157348238314952 -0.691338927579344 -0.238574526505986 147 141 155
0.149613987989463 -0.682187540227381 -0.238361638112056 41 38 49
0.184861364094390 -0.670737795620775 -0.240540289160337 141 130 138
0.181953087933629 -0.687887190391992 -0.239614351973476 187 195 216
0.175917545549345 -0.688919223654033 -0.238813371432513 58 49 70
0.176888266457979 -0.672949646996070 -0.239024676587637 138 136 141
0.192745721672594 -0.695398885983008 -0.238875170202661 146 164 166
0.203998058574953 -0.707086917567526 -0.238491010658961 225 234 233
0.205567785010162 -0.721212202230386 -0.237073911782820 202 206 215
0.196068186457664 -0.709391922517638 -0.237776469234264 247 254 254
0.208732880865130 -0.725382343563618 -0.238506289867199 193 186 204
0.218700117403144 -0.705429199774389 -0.237597844607871 209 220 222
0.221625402651290 -0.708794993799798 -0.237065151512679 136 144 147
0.218980392622298 -0.699129950368650 -0.237156941213104 160 143 162
0.201377575409743 -0.665588855045964 -0.239730906008601 125 122 129
0.202677810279306 -0.670449979973464 -0.239233211074850 136 142 142
0.199712344385464 -0.682488412826052 -0.237850056457210 127 122 142
0.193939474194860 -0.673302957227007 -0.238454453102672 133 134 136
0.223740168136030 -0.667729308073651 -0.239037337729294 119 118 123
0.210968026595119 -0.676554500543627 -0.238604021481938 140 130 139
0.217509595737177 -0.686119733166905 -0.236875034098566 43 33 42
0.215519101086494 -0.678995854782734 -0.237080936212825 125 135 124
0.163510518488790 -0.658761795787616 -0.240714183145478 144 150 150
0.159565487962320 -0.655384900015397 -0.238712673629407 97 73 107
0.145395863075304 -0.661996114229032 -0.236899779358100 29 21 32
0.158863021117916 -0.656025033984996 -0.237872045355208 77 66 106
0.160247544378741 -0.623180248996778 -0.242067022555014 159 151 164
0.153395200987410 -0.632166540784073 -0.240922851158856 133 132 138
0.142729150052273 -0.631995913421168 -0.239969126223430 129 125 139
0.156283920333882 -0.637999936477472 -0.239720452817447 139 137 159
0.167542279027814 -0.659121076545618 -0.241300425001377 170 183 173
0.170460545806945 -0.651205998412024 -0.240470779254197 147 147 149
0.183500176915185 -0.650383858742798 -0.240179582533652 118 119 121
0.176664037877660 -0.644608794908065 -0.239147630341069 154 148 152
0.186254859836582 -0.628343820224171 -0.240703677497617 161 169 171
0.175755940740118 -0.638623847018099 -0.240148847671888 149 149 141
0.171315375542484 -0.634151388142347 -0.239480344161151 113 111 112
0.173667281557834 -0.623174545522042 -0.239711582865099 171 170 166
0.193870474549419 -0.649149085075320 -0.241684651308158 179 186 196
0.188036811803691 -0.645515704616502 -0.241500986069060 169 163 175
0.198211717740319 -0.663399159476373 -0.239882200690422 126 110 120
0.201758724653755 -0.642904924749970 -0.240733019872238 147 152 155
0.220968576793459 -0.660163019356571 -0.242255909620897 60 51 68
0.217628318529300 -0.656464439979205 -0.241967989060171 106 95 103
0.207774980852672 -0.664151627100544 -0.238967179267498 135 135 143
0.212950907422963 -0.648144233925313 -0.240257151697571 67 58 85
0.204963798480776 -0.628589718193451 -0.243442766470531 85 95 87
0.196656858012875 -0.626207496969997 -0.242246586633349 94 106 104
0.203770642057459 -0.641308552691780 -0.241307702177335 116 113 130
0.189846491909470 -0.627588748839795 -0.241239360625133 58 30 45
0.219789171087536 -0.634890455462164 -0.243668702278237 87 80 98
0.223065033322545 -0.638090333690755 -0.243309097242408 109 112 105
0.226175525917768 -0.640367279071182 -0.242501564381807 181 177 178
0.224477039725373 -0.627310480313236 -0.242281193753880 153 159 157
0.246206994128284 -0.722360622619846 -0.239178579798454 83 79 106
0.242299448688067 -0.703749431088963 -0.238228455300675 186 188 185
0.235151224430657 -0.725377727373364 -0.236544623604819 79 88 83
0.236729845854370 -0.697917427882707 -0.237052685891476 33 26 42
0.266384306887938 -0.712835028192222 -0.240734712793251 163 156 164
0.250147308319877 -0.703326305749224 -0.240216884021429 57 56 54
0.256051561103039 -0.720552234856586 -0.238823648178378 254 254 254
0.247405200701890 -0.713279222053183 -0.239178770550117 93 99 113
0.228322803682312 -0.672912183369379 -0.240747001969165 136 126 135
0.233603058894401 -0.666653869270605 -0.240981469145017 72 62 89
0.228555162456184 -0.691930362649278 -0.237924239779104 137 141 126
0.236934150423448 -0.686831799588769 -0.239369274236348 133 138 131
0.244860068020314 -0.689517411332851 -0.241205201771011 127 126 131
0.259526624834428 -0.664227698863905 -0.240931811718244 82 65 81
0.247171503685879 -0.679852272525871 -0.239216138800976 119 119 131
0.263419806674392 -0.667245542780119 -0.236373562281880 167 165 186
0.273758117639070 -0.716025197161145 -0.241730903817740 202 206 209
0.279867945874268 -0.702859612729566 -0.242144825389720 132 136 135
0.273834742582256 -0.723698721694593 -0.238882213707831 188 200 200
0.287755150421049 -0.698121045745796 -0.239429127339530 127 127 139
0.306444483370840 -0.713600362016088 -0.242728620855536 115 120 116
0.303789639870064 -0.702631788480392 -0.241861864372242 107 117 108
0.293095114480373 -0.716204837540146 -0.241327206534917 158 160 157
0.316406517604309 -0.710622633174686 -0.237980983630171 46 42 43
0.284961096356328 -0.667152103077806 -0.242521307178968 129 132 146
0.288965717702442 -0.666985948841407 -0.242368963362999 253 253 253
0.287879329753918 -0.684435643956304 -0.240405380046402 132 119 137
0.278382324231844 -0.667309129847111 -0.241232703392080 55 42 52
0.314718651510772 -0.679406075772444 -0.243732899750552 61 53 64
0.312480237966350 -0.688993664490672 -0.242885266121514 75 54 71
0.315017072950568 -0.673798177157926 -0.237974765125945 199 207 210
0.312149960998768 -0.671795046252716 -0.238704347319300 108 111 118
0.227111130637370 -0.659807973285497 -0.242436417919966 137 128 129
0.238619375798644 -0.662645738093885 -0.241957869684428 116 108 121
0.236805075926017 -0.652003445278423 -0.241951388896664 148 155 163
0.245253538629583 -0.642552978393426 -0.241119740257019 209 213 214
0.234091395074667 -0.629136908415062 -0.242515317576737 161 170 165
0.236541249684773 -0.621072538492113 -0.242392068158227 175 182 201
0.242385556373318 -0.625389420311202 -0.239661205350797 221 227 225
0.244918783766702 -0.632220657030978 -0.241651379449271 187 203 193
0.262564705117732 -0.641634032255028 -0.242298881201868 123 104 134
0.271832961245064 -0.642943628262472 -0.241972466955469 189 187 188
0.267089673157626 -0.648936044080059 -0.241250681736355 198 202 213
0.251229318517726 -0.646280151445134 -0.241223313641450 158 159 161
0.262471670762704 -0.629368538159920 -0.242154033926270 84 83 91
0.269224184270998 -0.635804632808977 -0.241794896232017 84 87 92
0.258771865805901 -0.636100450488567 -0.241233084895407 192 198 198
0.271878846557694 -0.625999844709227 -0.238230539262597 155 167 181
0.286509699429212 -0.658843828540459 -0.243201270095883 135 134 142
0.284534103526613 -0.655589948515962 -0.242705892794842 165 174 173
0.274150889620372 -0.652003731405918 -0.241560214460544 225 229 230
0.284983547827109 -0.647859689669029 -0.240433654211709 192 193 198
0.277610233030302 -0.632165529800257 -0.243498489800200 175 182 198
0.279502794733825 -0.633430022576892 -0.242947021972538 76 71 93
0.273411183282482 -0.624157584219340 -0.237491991741063 142 145 150
0.280648182171837 -0.632361145631067 -0.241094985459902 168 192 196
0.301641327873846 -0.657437445139009 -0.243166596212270 217 220 235
0.301462145298837 -0.656646607817746 -0.242487577516088 165 174 191
0.304922466311041 -0.661899546199439 -0.238598003266958 236 240 243
0.314932837016014 -0.657391082947221 -0.236847909212032 84 74 72
0.318743645134537 -0.626614274892183 -0.244905450225431 174 175 170
0.309348276867511 -0.641110867205422 -0.244037000821125 81 78 97
0.294546567731091 -0.640113226468292 -0.239358010350625 128 120 144
0.317844518093966 -0.631833145026794 -0.242065215183003 156 159 164
0.159870428340212 -0.613274724943589 -0.240320819834020 165 152 169
0.147327524101032 -0.600939329901431 -0.239904943057490 39 22 32
0.150265366769618 -0.613803183351854 -0.238046277924551 149 154 160
0.149017846122234 -0.606182673474455 -0.238913787876915 70 50 49
0.174401045981409 -0.615670546760644 -0.242152107334470 167 157 182
0.162296808573743 -0.619318348045214 -0.241638894752902 147 155 158
0.176756323532409 -0.608080518999055 -0.239466514665555 160 164 165
0.173437301814864 -0.604834555168589 -0.239673532677044 177 169 182
0.145227338749487 -0.592969420202194 -0.241492697909286 70 52 64
0.157766232434945 -0.590964353167601 -0.241369539097816 111 134 116
0.142175002163740 -0.592619028471707 -0.236866908077706 66 66 68
0.144798853288007 -0.583337186057150 -0.239860297630673 34 23 37
0.173539611469525 -0.584482020315338 -0.242195713164722 190 197 203
0.167909247077850 -0.579454283347447 -0.240999452258083 252 255 250
0.172755235860860 -0.597908839149934 -0.240474699200879 188 198 200
0.178298989459771 -0.580025794406140 -0.240616084333787 88 85 96
0.187499423833183 -0.610787876432764 -0.242492956712996 144 151 144
0.188523450294153 -0.614834940023983 -0.242223801347157 163 173 183
0.206891162825286 -0.599439869225828 -0.242654442302433 231 236 230
0.204755255648178 -0.607441004972363 -0.241812020962598 82 86 97
0.186829117719227 -0.616790926655585 -0.241086969121248 191 191 189
0.190437974667320 -0.605594013841223 -0.240382785511873 62 67 63
0.206259350397003 -0.618459545906285 -0.241225483441621 178 182 181
0.212198826667009 -0.604098654326384 -0.240415900000638 88 95 111
0.191993833456601 -0.577027884038751 -0.242825537006914 162 174 170
0.185628486215101 -0.579313966423855 -0.242226848604979 98 123 104
0.203100703140455 -0.592027183285696 -0.243057467185643 86 103 129
0.213092613853203 -0.595351813102146 -0.241763775098134 141 149 138
0.189978430066248 -0.590204684668137 -0.241065271119537 213 221 224
0.185219803160676 -0.580870995951470 -0.241047717197713 155 154 160
0.195087024279855 -0.589278261064535 -0.240267781334013 73 52 91
0.201084490247731 -0.575292062977037 -0.241197733843389 172 172 170
0.144108756688974 -0.556167530107214 -0.242536047513757 186 189 170
0.150813610894169 -0.556552295287444 -0.242188841336048 101 102 94
0.154663470646980 -0.558561921286792 -0.242969573587942 231 237 223
0.165980676229069 -0.550755314086587 -0.242179661412247 75 72 55
0.164379525841712 -0.569730736381136 -0.240957558424010 84 74 75
0.148595207199237 -0.551744895565939 -0.240973681708359 158 156 144
0.168305075854558 -0.565843408232843 -0.239327237338528 77 61 87
0.175881026143388 -0.562040468620434 -0.241463231546083 57 51 65
0.151029947124415 -0.533938208713001 -0.243334204930102 235 235 235
0.155552459236642 -0.521557185872959 -0.243586559843188 140 150 152
0.164492770335477 -0.526570177737270 -0.243646961357402 221 229 214
0.164442216375886 -0.514811176996387 -0.243342688610331 78 76 79
0.161112574559481 -0.535086285749467 -0.241967974753797 231 243 229
0.157940383934832 -0.528266169851667 -0.242367847465768 134 139 133
0.171741471839381 -0.545673136593964 -0.242636320894411 126 126 114
0.168028772070132 -0.532004444650185 -0.241154542898005 134 127 134
0.177331463641498 -0.550276393885305 -0.242537711822020 131 128 119
0.176964233307925 -0.555079120191057 -0.242196590622373 252 243 238
0.183229810276283 -0.568190721901896 -0.240733434757106 26 17 22
0.184150940521226 -0.548740270739998 -0.241785258504224 153 155 154
0.206485010806995 -0.556960809049768 -0.243972479070983 146 159 139
0.204772820299783 -0.560769852715404 -0.243410014409926 150 142 140
0.204851754530293 -0.572116467435197 -0.241717422443929 151 154 159
0.198546126865810 -0.562088328212780 -0.242534807627945 138 139 144
0.184200440577877 -0.532241682493947 -0.243674682342884 221 221 213
0.189648763503988 -0.521456793272515 -0.242771406453635 75 66 61
0.181151702045381 -0.539393687210885 -0.242476065653203 135 134 129
0.186274459569995 -0.526020049940043 -0.242490200351460 140 137 130
0.211006978680883 -0.530562877104422 -0.244116658715759 132 125 133
0.211106230944039 -0.518575661073455 -0.243229372584693 67 63 80
0.206943247566976 -0.542454469326529 -0.242047766174594 148 146 167
0.203393753728729 -0.531066347044782 -0.242878213078760 59 59 51
0.214825979583349 -0.603454962838263 -0.242769336798087 208 230 217
0.232019363476441 -0.608395221093322 -0.241975313924046 69 62 93
0.221789381275553 -0.611293654468251 -0.240924257952373 165 190 187
0.232956506131329 -0.617509545397087 -0.241557057520515 167 180 196
0.215976285135732 -0.602381030973358 -0.243538170914977 114 106 103
0.219852678719686 -0.592666029681567 -0.242439541478454 111 109 114
0.218710691453359 -0.594355650690407 -0.241479145003601 161 159 164
0.229052733997453 -0.597230125656414 -0.239361195903404 177 186 201
0.244915870035044 -0.608463338512319 -0.244631115951930 160 173 182
0.248201505442704 -0.612802805328354 -0.243349350612175 161 168 186
0.238163982430646 -0.620353500096951 -0.241807915033043 93 67 78
0.253102089736173 -0.606246746958189 -0.242346268683847 155 164 163
0.251093629706367 -0.596725721032903 -0.242914212686434 87 76 93
0.247174820380426 -0.593839800967092 -0.242871069428966 201 214 220
0.234948590130832 -0.593039101784832 -0.238558036024686 239 241 240
0.242853880319699 -0.593012511002955 -0.241176126448718 185 190 193
0.271431095178210 -0.619777410998337 -0.242894078848363 161 163 158
0.273952441127361 -0.618339830162339 -0.242835694532990 59 44 47
0.254325270471308 -0.619295591371772 -0.241335895273185 170 167 186
0.280548385670341 -0.610720293118423 -0.239958553812486 179 180 198
0.257384974840054 -0.604183786793756 -0.242983980107320 135 157 168
0.278368127539296 -0.584551778198641 -0.242718024600634 87 86 94
0.255748347027701 -0.599145634785044 -0.238430332554836 60 48 52
0.263398204048513 -0.599664841737635 -0.236467650539849 150 151 135
0.297673998477925 -0.609245763685226 -0.245150919003469 72 67 99
0.309095445075267 -0.617017921135023 -0.244894558305451 100 102 114
0.291059269664892 -0.610290834823460 -0.243588696261818 170 172 169
0.317587022423551 -0.620909159692416 -0.240958493107161 93 73 98
0.303340391090023 -0.598283437266506 -0.245437461383427 132 150 162
0.309693079574261 -0.601135002957740 -0.245021341398526 84 78 82
0.297726908220559 -0.603725963726446 -0.238640106927861 115 135 126
0.306953799849684 -0.594761818207270 -0.240846240522045 96 80 127
0.228175800316819 -0.574258627690271 -0.243571633525528 177 173 164
0.216822478589712 -0.552914546615535 -0.244446454035391 152 153 145
0.232111651515587 -0.578492303633788 -0.242943779194260 129 121 132
0.225376507138443 -0.564455022250834 -0.240455814786203 107 103 104
0.238409931664436 -0.562740183872094 -0.243273789109514 136 132 123
0.252182812166760 -0.557685207566670 -0.242125235193890 115 121 121
0.247797319358744 -0.576820918483969 -0.240205858575284 140 142 131
0.242789220274600 -0.572021511257160 -0.239678921411535 156 143 153
0.218875984401291 -0.546809310726634 -0.244050987686844 148 139 142
0.228220377788356 -0.518402019834268 -0.244205033961409 57 15 37
0.218492389586832 -0.540827281337118 -0.243657858046173 152 141 145
0.219546063550572 -0.521445672450539 -0.243735026631599 161 156 163
0.238514208445626 -0.546565930679310 -0.241431128041134 143 140 151
0.231727747102237 -0.516375207110048 -0.242407886239914 209 208 206
0.254155229669768 -0.539786139683151 -0.239231952113872 197 202 198
0.237013195528362 -0.518292165951320 -0.237022408833704 38 23 30
0.258241063536572 -0.579327891295283 -0.241945842792051 217 221 207
0.265991396611680 -0.556598781467813 -0.242183509827056 236 237 229
0.260382854210298 -0.571371524964147 -0.241105286049725 254 255 249
0.260055982159907 -0.549034943909608 -0.239566454230798 143 131 105
0.276641162123556 -0.567022959293768 -0.241656100552940 255 255 255
0.279127934333716 -0.571764664142401 -0.238893906784797 151 156 152
0.312177448313463 -0.572886608200981 -0.239754225399451 162 163 165
0.303427803039773 -0.565591730488161 -0.236784241075583 94 88 102
0.266623781294954 -0.543534810447324 -0.241894921635508 79 58 65
0.260678409606351 -0.525314764739813 -0.243829916046554 179 180 182
0.263669319387694 -0.545165889770668 -0.237305593984386 166 168 167
0.259350725572426 -0.531783001044151 -0.239949722010471 194 205 199
0.279682125141373 -0.527857312736349 -0.241058117932160 180 182 195
0.279798102152716 -0.530722669772846 -0.238617550543665 187 182 188
0.286530319684025 -0.539071984530572 -0.242973107262507 174 171 166
0.303284596228480 -0.538843788315655 -0.237642695092727 139 143 144
0.176098793011109 -0.697677138012330 -0.236017815198443 26 17 20
0.193710681880994 -0.705239363718980 -0.223985438711168 47 35 49
